592.75305,303.1728,191.53738
592.75305,304.54318,191.53738
593.3519,305.89526,191.72983
593.3519,307.2614,191.72983
593.3519,308.62756,191.72983
593.3519,309.9937,191.72983
594.5386,311.2899,192.11118
595.71075,312.57016,192.48785
596.86865,313.83487,192.85995
597.44226,315.13004,193.04431
598.5792,316.36786,193.40967
599.1426,317.64374,193.5907
600.2592,318.85544,193.94952
600.8125,320.1125,194.12735
613.1687,319.9958,198.09814
613.6479,321.16254,198.25214
614.59827,322.26126,198.55756
618.2972,324.15918,199.74622
618.74835,325.28018,199.8912
619.1971,326.39517,200.03543
619.64343,327.50418,200.17886
620.52893,328.53113,200.46344
620.52893,329.7045,200.46344
620.52893,330.8779,200.46344
620.9682,331.96616,200.60461
621.40515,333.04868,200.745
621.40515,334.21585,200.745
621.8397,335.28958,200.88467
622.2721,336.35764,201.02362
622.2721,337.51865,201.02362
624.819,338.07782,201.84207
625.6504,339.0184,202.10925
626.06287,340.05212,202.24182
624.819,341.50668,201.84207
624.819,342.64966,201.84207
627.2878,343.12164,202.63544
627.2878,344.2471,202.63544
627.2878,345.37253,202.63544
626.8816,346.617,202.50491
626.8816,347.74533,202.50491
626.47327,348.9991,202.37372
626.47327,350.13034,202.37372
631.6228,349.60635,204.02856
631.6228,350.70105,204.02856
632.3857,351.53973,204.27371
632.3857,352.629,204.27371
632.7643,353.58585,204.39539
632.7643,354.67245,204.39539
632.0052,356.03534,204.15146
636.45026,355.47787,205.5799
636.8091,356.40262,205.69522
637.52167,357.186,205.92422
636.8091,359.57635,205.69522
638.5779,359.9152,206.26364
639.2737,360.67273,206.48724
591.4404,274.15323,189.67346
592.6538,275.68915,190.07239
594.4458,277.27643,190.66156
595.03577,278.7042,190.85553
596.20483,280.18402,191.2399
596.20483,281.53345,191.2399
596.78406,282.93512,191.43033
596.78406,284.2804,191.43033
596.20483,285.5817,191.2399
595.62213,286.891,191.04831
595.03577,288.20834,190.85553
595.62213,289.5981,191.04831
595.03577,290.92383,190.85553
594.4458,292.2577,190.66156
593.8522,293.59985,190.4664
593.8522,294.966,190.4664
593.2549,296.32077,190.27002
592.049,297.67673,189.87357
592.049,299.0557,189.87357
592.049,300.43466,189.87357
592.049,301.81366,189.87357
592.049,303.19263,189.87357
592.049,304.5716,189.87357
592.049,305.9506,189.87357
593.2549,307.284,190.27002
593.8522,308.62756,190.4664
594.4458,309.96283,190.66156
595.62213,311.25522,191.04831
596.78406,312.5318,191.43033
597.9319,313.7929,191.80771
599.0659,315.0388,192.18054
599.6278,316.31866,192.36526
600.1863,317.59085,192.54889
601.29333,318.79926,192.91284
613.6175,318.7702,196.96469
614.5706,319.88522,197.27808
617.3679,320.75958,198.19775
618.7326,321.78073,198.64642
619.1826,322.90814,198.79437
619.6302,324.0295,198.94153
620.0753,325.14484,199.08789
620.9586,326.18436,199.3783
621.3967,327.2851,199.52231
621.3967,328.45535,199.52231
621.8325,329.54718,199.66559
622.266,330.6332,199.8081
623.1261,331.63022,200.09091
623.1261,332.7882,200.09091
625.2374,333.506,200.78503
626.47815,334.38147,201.19296
627.6998,335.24353,201.59464
628.10297,336.27634,201.72714
628.10297,337.39893,201.72714
628.10297,338.52148,201.72714
628.10297,339.64407,201.72714
628.10297,340.76666,201.72714
628.50397,341.7828,201.85901
628.50397,342.90253,201.85901
628.50397,344.02228,201.85901
628.10297,345.25696,201.72714
628.10297,346.37955,201.72714
627.6998,347.6234,201.59464
627.29474,348.87366,201.46143
632.78455,348.27185,203.26636
633.1622,349.23944,203.3905
633.53796,350.20227,203.51404
633.91187,351.1604,203.637
633.91187,352.24167,203.637
634.284,353.1924,203.75931
634.65424,354.13855,203.88104
635.3894,354.94626,204.12277
637.1965,355.34473,204.71686
637.5527,356.26758,204.83398
638.26,357.0497,205.06653
638.96063,357.82446,205.29688
638.96063,358.8698,205.29688
639.65466,359.63232,205.52505
639.9992,360.52985,205.63834
590.7214,273.98996,187.98212
592.55396,275.61307,188.59827
593.75665,277.13513,189.00266
594.94446,278.63837,189.40204
595.5329,280.06192,189.59985
596.11774,281.4767,189.79651
596.11774,282.8303,189.79651
595.5329,284.13513,189.59985
595.5329,285.49286,189.59985
595.5329,286.85062,189.59985
594.94446,288.1719,189.40204
595.5329,289.56607,189.59985
594.94446,290.89578,189.40204
594.3524,292.2337,189.20294
593.75665,293.57996,189.00266
593.75665,294.95038,189.00266
592.55396,296.29773,188.59827
591.9469,297.66943,188.39417
591.3361,299.04974,188.18878
591.9469,300.43604,188.39417
591.3361,301.82507,188.18878
591.3361,303.21274,188.18878
591.9469,304.58597,188.39417
592.55396,305.9506,188.59827
593.15717,307.3067,188.80109
594.94446,308.6009,189.40204
596.11774,309.90164,189.79651
597.2767,311.1865,190.18616
597.8508,312.49365,190.37921
598.9887,313.7512,190.76181
600.113,314.9936,191.1398
601.22375,316.22113,191.5133
601.77423,317.48602,191.69836
616.4234,318.51282,196.62381
617.80695,319.56064,197.08899
619.168,320.59152,197.54663
619.6169,321.72214,197.69754
620.5073,322.78552,197.99692
621.38824,323.8376,198.29312
621.38824,325.01096,198.29312
621.8252,326.1148,198.44003
622.2599,327.21283,198.58618
623.1223,328.23047,198.87616
623.5501,329.31427,199.01999
624.39905,330.31296,199.30542
625.23914,331.30127,199.58789
626.4831,332.19604,200.00613
627.3017,333.16202,200.28137
628.11194,334.1181,200.5538
628.11194,335.24353,200.5538
628.514,336.27634,200.689
629.31195,337.20938,200.95728
629.7079,338.22937,201.0904
629.7079,339.34344,201.0904
629.7079,340.45752,201.0904
629.7079,341.5716,201.0904
629.7079,342.68564,201.0904
629.7079,343.7997,201.0904
629.7079,344.9138,201.0904
629.31195,346.14447,200.95728
628.914,347.38144,200.82346
634.3078,346.83533,202.63702
634.67896,347.79932,202.76181
634.67896,348.87793,202.76181
634.3078,350.07913,202.63702
634.3078,351.1604,202.63702
634.67896,352.1138,202.76181
635.4158,352.93335,203.00955
635.7815,353.8755,203.1325
636.5076,354.68057,203.37668
638.2927,355.0803,203.97684
638.6446,355.9994,204.09515
638.9949,356.9141,204.21292
639.6903,357.68762,204.44678
640.0356,358.5919,204.56287
640.0356,359.63232,204.56287
641.73785,359.96497,205.1352
591.2311,275.382,186.69473
593.05884,276.99207,187.32297
594.2584,278.50552,187.73529
595.4432,280.0003,188.14249
595.4432,281.36224,188.14249
596.03,282.7774,188.34421
596.03,284.13513,188.34421
595.4432,285.44803,188.14249
595.4432,286.80997,188.14249
595.4432,288.1719,188.14249
595.4432,289.53384,188.14249
594.8526,290.86755,187.93951
593.6605,292.18527,187.52975
593.6605,293.55994,187.52975
593.05884,294.91876,187.32297
591.8442,296.27444,186.90546
591.2311,297.6547,186.69473
590.61414,299.04373,186.48267
590.61414,300.4402,186.48267
591.2311,301.83084,186.69473
591.2311,303.22287,186.69473
591.8442,304.6004,186.90546
593.05884,305.9506,187.32297
594.8526,307.2614,187.93951
596.03,308.5744,188.34421
597.7692,309.8412,188.94202
598.3419,311.15247,189.13885
598.91113,312.45575,189.3345
600.59814,313.6685,189.91437
601.70605,314.90396,190.29517
602.8008,316.12476,190.67145
618.70087,318.31192,196.1366
619.6035,319.4023,196.44684
620.05115,320.5361,196.60071
621.37976,321.54816,197.05737
622.2537,322.604,197.35776
622.68726,323.71133,197.50677
623.11847,324.81277,197.655
623.5474,325.90845,197.80243
623.9741,326.99835,197.9491
624.82086,328.00912,198.24014
625.65875,329.0094,198.52814
626.8994,329.92194,198.95456
628.121,330.82047,199.37445
628.52405,331.8672,199.513
628.52405,332.99265,199.513
628.92505,334.0312,199.65082
628.92505,335.15378,199.65082
629.324,336.18417,199.78793
630.1158,337.11533,200.06012
630.5087,338.133,200.19516
630.8997,339.14554,200.32953
630.5087,340.3555,200.19516
630.8997,341.3625,200.32953
630.8997,342.47095,200.32953
630.5087,343.68927,200.19516
630.5087,344.80054,200.19516
630.8997,345.79633,200.32953
634.70374,345.75406,201.63705
635.07385,346.7207,201.76428
635.07385,347.79932,201.76428
635.07385,348.87793,201.76428
635.07385,349.95657,201.76428
635.07385,351.0352,201.76428
635.4422,351.98657,201.8909
636.53656,352.67676,202.26703
637.2573,353.48566,202.51477
637.9712,354.2868,202.76013
639.37854,354.8184,203.24387
639.37854,355.86624,203.24387
639.37854,356.9141,203.24387
640.0722,357.68762,203.4823
641.44,358.17984,203.95245
643.11414,358.527,204.52786
643.11414,359.54816,204.52786
591.1254,276.70044,185.19122
592.95996,278.30313,185.83557
593.5638,279.75,186.04767
594.1639,281.18784,186.25845
594.1639,282.56253,186.25845
594.7602,283.98715,186.46793
595.35284,285.40292,186.67609
594.7602,286.72794,186.46793
594.1639,288.06122,186.25845
594.1639,289.4359,186.25845
594.1639,290.81058,186.25845
593.5638,292.1608,186.04767
592.95996,293.5195,185.83557
592.3523,294.88678,185.62213
591.74084,296.26266,185.40735
591.1254,297.64728,185.19122
590.50616,299.04068,184.9737
589.88293,300.443,184.75479
590.50616,301.84247,184.9737
591.1254,303.2331,185.19122
591.74084,304.61493,185.40735
593.5638,305.9506,186.04767
595.35284,307.2614,186.67609
597.10895,308.54807,187.29291
598.833,309.81125,187.8985
599.96497,311.085,188.29608
600.5259,312.38065,188.4931
602.18835,313.5868,189.07706
603.8213,314.7715,189.6506
618.22864,317.20963,194.71118
620.03894,318.2131,195.34705
620.4854,319.3501,195.50385
621.81055,320.37164,195.9693
623.1146,321.37698,196.42737
623.54474,322.48462,196.57843
623.97253,323.5864,196.7287
624.39813,324.6824,196.8782
624.8215,325.77264,197.02689
626.07837,326.71756,197.46838
627.31573,327.64783,197.90302
628.1301,328.63712,198.18906
628.5342,329.69214,198.33096
628.93616,330.74176,198.47217
628.93616,331.8672,198.47217
629.33606,332.9086,198.61264
629.73395,333.94473,198.75241
630.1299,334.9756,198.89145
630.52374,336.00125,199.02982
630.91565,337.02173,199.16745
631.30554,338.03708,199.30441
631.69354,339.04733,199.4407
631.69354,340.153,199.4407
631.69354,341.2587,199.4407
631.69354,342.36438,199.4407
631.69354,343.47006,199.4407
632.4637,344.3532,199.71121
634.72864,344.78265,200.50677
635.8362,345.53064,200.89581
636.2018,346.49313,201.02423
635.8362,347.68262,200.89581
635.4688,348.87793,200.76675
635.4688,349.95657,200.76675
636.2018,350.7866,201.02423
636.9277,351.60858,201.27917
637.6466,352.42267,201.53168
638.0034,353.357,201.65704
639.4138,353.89868,202.15244
640.10895,354.68835,202.3966
640.10895,355.73373,202.3966
640.10895,356.77908,202.3966
640.79755,357.55145,202.63846
642.1554,358.0438,203.11539
643.8174,358.39172,203.69919
644.1452,359.2735,203.81433
590.3975,279.36258,183.45511
591.6368,280.88983,183.89975
592.25055,282.34222,184.12
592.8604,283.7855,184.33884
592.8604,285.17313,184.33884
592.25055,286.51834,184.12
592.25055,287.9104,184.12
592.8604,289.33612,184.33884
592.25055,290.6945,184.12
591.6368,292.06146,183.89975
591.6368,293.45792,183.89975
591.0191,294.838,183.67813
591.0191,296.2389,183.67813
589.1424,297.61707,183.00473
588.5088,299.02835,182.77737
588.5088,300.44727,182.77737
589.1424,301.86023,183.00473
589.1424,303.2746,183.00473
591.0191,304.64426,183.67813
593.46643,305.96927,184.55627
595.8531,307.2614,185.41266
597.02435,308.5744,185.83292
598.75446,309.8412,186.4537
600.4531,311.085,187.06323
601.56854,312.3434,187.46347
603.75964,313.50607,188.24966
605.8993,314.64142,189.01743
611.5322,315.43686,191.03864
617.28864,316.1395,193.10413
619.1239,317.1628,193.76266
620.47437,318.2131,194.24722
621.8031,319.24652,194.72403
622.6772,320.3174,195.03766
623.542,321.37698,195.34796
623.97095,322.48462,195.50186
624.82214,323.5244,195.80728
625.6644,324.55338,196.10953
626.91144,325.5053,196.55698
627.7321,326.51077,196.85144
628.1393,327.5767,196.99753
628.5443,328.63712,197.14288
628.94727,329.69214,197.28748
629.3482,330.74176,197.43134
629.3482,331.8672,197.43134
630.144,332.825,197.71686
630.5388,333.8587,197.85855
630.5388,334.9756,197.85855
630.93164,336.00125,197.99951
632.0984,336.836,198.41815
632.0984,337.94165,198.41815
632.4834,338.94965,198.5563
632.4834,340.05255,198.5563
632.4834,341.15546,198.5563
632.4834,342.25836,198.5563
632.4834,343.3613,198.5563
635.49554,343.59152,199.63712
636.23016,344.45465,199.90073
636.59485,345.41977,200.03156
636.59485,346.49313,200.03156
635.49554,347.9166,199.63712
635.49554,348.99786,199.63712
635.8638,349.95657,199.76923
636.9577,350.6632,200.16177
638.0358,351.35965,200.54861
638.3917,352.2965,200.6763
638.7459,353.2289,200.8034
640.4917,353.643,201.42984
640.83594,354.55896,201.55334
640.83594,355.60187,201.55334
640.83594,356.64474,201.55334
641.17847,357.55145,201.67627
642.1966,358.17984,202.04156
644.51733,358.25705,202.8743
645.16675,359.00134,203.1073
590.2882,282.11627,181.92679
590.2882,283.52612,181.92679
590.9121,284.98404,182.1554
591.53204,286.43265,182.38257
591.53204,287.83356,182.38257
591.53204,289.23444,182.38257
590.9121,290.60547,182.1554
590.9121,292.01083,182.1554
590.2882,293.39514,181.92679
590.2882,294.805,181.92679
589.6603,296.2027,181.69669
588.3923,297.60168,181.23206
589.0283,303.28513,181.46512
591.53204,304.64426,182.38257
593.3685,305.98807,183.05551
595.7638,307.284,183.9332
597.5215,308.5744,184.57727
599.247,309.8412,185.20956
601.49915,311.05157,186.03482
604.7773,312.1606,187.23602
606.89874,313.30838,188.01337
612.4846,314.14316,190.06018
615.38696,315.13553,191.12372
619.109,316.00745,192.48758
620.0143,317.11624,192.8193
621.35394,318.1641,193.31018
623.1068,319.14404,193.95248
623.53925,320.26346,194.11093
624.3972,321.32053,194.42532
625.24615,322.36646,194.73639
626.5029,323.34045,195.19693
627.32996,324.36237,195.49997
627.7403,325.43933,195.6503
628.14844,326.51077,195.79987
628.5545,327.5767,195.94867
629.3604,328.5638,196.24399
629.3604,329.69214,196.24399
629.7603,330.74176,196.3905
630.15814,331.78604,196.53629
630.94775,332.74182,196.82562
631.3396,333.77313,196.96921
631.72943,334.79922,197.11206
632.50323,335.7303,197.3956
632.88727,336.7438,197.53632
633.26935,337.75226,197.67633
633.64954,338.75568,197.81564
634.02783,339.7541,197.95425
634.02783,340.8488,197.95425
634.02783,341.94348,197.95425
635.1515,342.71985,198.366
636.98785,343.27304,199.03891
636.98785,344.3464,199.03891
636.98785,345.41977,199.03891
636.2587,346.7207,198.77173
635.8915,347.9166,198.63715
636.62415,348.7586,198.90564
637.3498,349.59247,199.17151
638.42505,350.29663,199.56552
638.42505,351.35965,199.56552
638.78,352.2965,199.69559
640.183,352.84836,200.20969
641.55945,353.38974,200.71405
641.55945,354.43018,200.71405
641.55945,355.47058,200.71405
641.89954,356.37793,200.83868
642.238,357.281,200.9627
642.5749,358.17984,201.08615
646.17896,357.72455,202.40677
646.17896,358.7317,202.40677
589.54785,283.42007,180.1529
590.17816,284.88763,180.38867
590.17816,286.30203,180.38867
590.80444,287.7557,180.62292
590.17816,289.1308,180.38867
589.54785,290.51474,180.1529
588.275,291.88138,179.67673
588.9135,293.33112,179.91559
591.4267,304.6591,180.85571
592.6594,306.026,181.31686
595.07855,307.32956,182.2218
598.0186,308.5744,183.32162
600.3063,309.81125,184.1774
603.6352,310.95248,185.42267
606.31946,312.089,186.42679
609.9473,313.1164,187.7839
614.40186,314.02383,189.45026
616.78046,315.05157,190.34006
620.0019,315.9639,191.5451
621.3453,317.02386,192.04764
623.1029,318.01862,192.70514
623.9677,319.0932,193.02866
624.3967,320.2098,193.18912
625.2479,321.26434,193.50754
626.09015,322.30786,193.8226
627.3371,323.2798,194.28906
627.7485,324.36237,194.44293
628.1577,325.43933,194.59604
628.56476,326.51077,194.74832
628.9698,327.5767,194.89981
629.77356,328.5638,195.2005
630.1724,329.6163,195.3497
630.1724,330.74176,195.3497
631.35675,331.62494,195.79272
631.7475,332.65906,195.9389
632.13635,333.68796,196.08435
632.5232,334.7117,196.22906
633.2911,335.6409,196.51633
633.6722,336.6521,196.65887
634.05133,337.65823,196.80072
634.42865,338.6594,196.94186
634.42865,339.7541,196.94186
634.8041,340.7476,197.0823
635.5494,341.63327,197.36111
637.38086,342.19968,198.04623
637.7418,343.1679,198.18127
637.7418,344.23865,198.18127
637.38086,345.41977,198.04623
636.6537,346.7207,197.7742
637.0181,347.68262,197.91055
637.7418,348.5217,198.18127
638.1011,349.47226,198.31564
638.8143,350.29663,198.58243
639.1683,351.23608,198.71487
639.5206,352.171,198.84668
641.25726,352.59766,199.4963
641.9404,353.38974,199.75186
641.9404,354.43018,199.75186
642.2796,355.33997,199.87875
642.9531,356.11365,200.1307
642.9531,357.14673,200.1307
643.2876,358.0438,200.2558
646.5477,357.72455,201.47537
646.86554,358.59778,201.59427
590.69604,306.10336,179.08063
593.1708,307.42245,180.02539
598.51575,308.5744,182.06598
600.79736,309.81125,182.93701
604.1175,310.95248,184.20456
606.7947,312.089,185.22662
610.4129,313.1164,186.60794
615.81256,313.9454,188.66937
618.1586,314.96857,189.56503
620.8899,315.9206,190.60776
622.2225,316.97806,191.11649
623.9661,317.97064,191.78217
624.8241,319.04263,192.10971
625.2497,320.15643,192.27219
626.0941,321.2085,192.59457
626.92975,322.24954,192.9136
627.3443,323.34045,193.07187
628.167,324.36237,193.38593
628.57513,325.43933,193.54175
629.3851,326.44254,193.85095
630.1867,327.4355,194.15701
630.5845,328.49088,194.30887
630.5845,329.6163,194.30887
631.37396,330.58554,194.61026
631.7657,331.62494,194.75983
632.5432,332.57672,195.05664
632.9291,333.60324,195.20395
633.313,334.62463,195.35052
633.69495,335.6409,195.49634
634.075,336.6521,195.64145
634.82947,337.5647,195.92947
634.82947,338.6594,195.92947
635.2039,339.6556,196.07245
635.5765,340.64688,196.21466
637.7739,341.12628,197.05359
638.1339,342.09714,197.19101
638.1339,343.1679,197.19101
637.7739,344.3464,197.05359
637.0486,345.6421,196.77667
637.0486,346.7207,196.77667
638.1339,347.45093,197.19101
638.4922,348.4041,197.32779
638.8487,349.35266,197.4639
639.2035,350.29663,197.59937
639.90796,351.1131,197.86832
640.6058,351.92175,198.1347
641.9815,352.47318,198.65991
642.32135,353.38974,198.78967
642.65967,354.30197,198.91882
643.3314,355.0805,199.1753
643.3314,356.11365,199.1753
643.665,357.0131,199.30261
644.3274,357.7736,199.55551
647.2335,357.59296,200.66498
647.5491,358.4645,200.78543
595.4925,308.73587,179.43909
602.4056,309.7519,182.13177
604.5998,310.95248,182.98642
608.8345,311.98315,184.63583
611.88293,313.04117,185.82321
615.78796,313.9845,187.34424
619.0639,314.9274,188.62024
621.3277,315.9206,189.50198
623.095,316.9325,190.19037
624.39575,317.97064,190.69702
625.25146,319.04263,191.0303
626.09814,320.10333,191.36008
626.9359,321.1529,191.6864
627.35156,322.24954,191.8483
627.765,323.34045,192.00934
628.58545,324.36237,192.32892
629.39746,325.37372,192.6452
630.2011,326.37466,192.95822
630.59985,327.4355,193.11353
630.9966,328.49088,193.26804
630.9966,329.6163,193.26804
632.1746,330.50806,193.7269
632.56335,331.54498,193.8783
632.56335,332.65906,193.8783
633.3349,333.60324,194.17883
634.09875,334.53796,194.47635
634.47784,335.5519,194.624
634.855,336.56082,194.7709
635.2303,337.5647,194.91708
635.2303,338.6594,194.91708
635.97534,339.5576,195.2073
637.44354,340.24896,195.77917
638.526,341.02637,196.20078
638.526,342.09714,196.20078
638.8833,343.0633,196.33994
638.16693,344.3464,196.06091
637.0792,345.75406,195.63724
637.44354,346.7207,195.77917
638.526,347.45093,196.20078
639.5927,348.1706,196.61627
639.5927,349.2336,196.61627
639.9449,350.17563,196.75342
640.64417,350.9907,197.02582
642.02277,351.55228,197.56277
642.70233,352.3493,197.82748
642.70233,353.38974,197.82748
643.7097,354.0474,198.21985
643.7097,355.0805,198.21985
644.04236,355.98242,198.34943
644.04236,357.0131,198.34943
645.03107,357.6394,198.7345
647.60144,357.59296,199.73569
648.22943,358.33182,199.98029
603.4458,309.72247,181.11823
605.0821,310.95248,181.76831
609.8196,311.94827,183.65039
612.3458,313.04117,184.65402
615.76324,314.02383,186.01169
619.50775,314.9274,187.49927
621.3189,315.9639,188.21878
623.091,316.97806,188.92282
624.39526,318.01862,189.44098
625.67883,319.04263,189.9509
626.52325,320.10333,190.28638
627.3588,321.1529,190.61832
627.7733,322.24954,190.78299
628.18567,323.34045,190.94681
629.41,324.29935,191.43317
629.81384,325.37372,191.59363
630.61536,326.37466,191.91205
631.013,327.4355,192.07004
631.4087,328.49088,192.22723
631.4087,329.6163,192.22723
632.5836,330.50806,192.694
632.5836,331.62494,192.694
632.97125,332.65906,192.84802
634.1227,333.51895,193.30542
634.5026,334.53796,193.45636
634.8807,335.5519,193.60657
635.63116,336.47,193.90472
635.63116,337.5647,193.90472
635.63116,338.6594,193.90472
637.1099,339.36304,194.49222
638.55994,340.05292,195.06827
638.918,341.02637,195.21051
638.918,342.09714,195.21051
638.918,343.1679,195.21051
638.2001,344.45465,194.9253
637.8385,345.6421,194.78165
638.55994,346.49313,195.06827
639.2744,347.33594,195.35208
639.98193,348.1706,195.63318
640.3332,349.11517,195.7727
640.68274,350.05518,195.91159
641.3768,350.8689,196.18732
642.74524,351.4303,196.73096
643.0833,352.3493,196.86526
643.4198,353.264,196.99896
643.75464,354.1744,197.13199
644.088,355.0805,197.2644
644.088,356.11365,197.2644
644.75,356.88007,197.5274
645.73145,357.50586,197.91733
647.96936,357.59296,198.8064
648.28326,358.4645,198.93109
607.1673,310.85516,181.19952
609.7765,311.98315,182.25647
613.79645,312.96677,183.88492
615.7384,314.0634,184.67157
619.03345,315.00995,186.00638
621.7579,315.9639,187.11002
623.08704,317.02386,187.64844
624.8261,318.01862,188.3529
626.1062,319.04263,188.87149
626.94836,320.10333,189.21265
627.78174,321.1529,189.55023
628.1951,322.24954,189.71768
629.0155,323.2798,190.05002
629.8274,324.29935,190.3789
629.8274,325.43933,190.3789
630.23016,326.51077,190.54205
631.42615,327.4355,191.02655
631.82074,328.49088,191.1864
632.2134,329.5409,191.34543
632.99255,330.50806,191.6611
633.3792,331.54498,191.81772
633.7639,332.57672,191.97354
634.5275,333.51895,192.2829
634.90643,334.53796,192.4364
635.2835,335.5519,192.58911
636.032,336.47,192.89233
636.032,337.5647,192.89233
637.14087,338.37347,193.34152
638.95294,338.97955,194.07559
639.3101,339.95563,194.22028
639.3101,341.02637,194.22028
639.3101,342.09714,194.22028
639.3101,343.1679,194.22028
638.23346,344.56345,193.78412
638.59406,345.53064,193.9302
639.3101,346.3802,194.22028
640.0192,347.2215,194.5075
640.3712,348.1706,194.65012
640.7215,349.11517,194.79199
641.7623,349.81604,195.21362
642.7883,350.50693,195.62927
643.46423,351.3089,195.90308
643.46423,352.3493,195.90308
644.13385,353.13885,196.17432
644.4663,354.0474,196.30899
644.4663,355.0805,196.30899
644.4663,356.11365,196.30899
644.7972,357.0131,196.44302
645.4543,357.7736,196.70923
648.3373,357.59296,197.8771
648.3373,358.59778,197.8771
608.17194,310.8231,180.20969
609.7332,312.01822,180.8544
613.27167,313.04117,182.31561
615.7134,314.10315,183.32391
618.55383,315.09344,184.49686
621.7502,316.00745,185.81677
623.52246,317.02386,186.54865
625.2569,318.01862,187.26486
626.53357,319.04263,187.79208
626.95465,320.15643,187.96594
628.2046,321.1529,188.48212
629.02704,322.19153,188.82175
629.43506,323.2798,188.99023
629.841,324.36237,189.15787
630.2448,325.43933,189.32462
631.04614,326.44254,189.65555
632.23285,327.36542,190.14557
632.6244,328.4183,190.30728
633.40155,329.39114,190.62817
633.7871,330.43094,190.78741
633.7871,331.54498,190.78741
634.55255,332.49478,191.10349
634.9324,333.51895,191.26035
635.3103,334.53796,191.41641
635.68634,335.5519,191.57169
636.4328,336.47,191.87994
637.90375,337.19516,192.48737
639.346,337.9062,193.08295
639.70215,338.88486,193.23001
639.70215,339.95563,193.23001
639.346,341.12628,193.08295
639.70215,342.09714,193.23001
639.70215,343.1679,193.23001
638.98804,344.45465,192.93512
638.98804,345.53064,192.93512
639.70215,346.3802,193.23001
640.76044,347.1076,193.66702
641.10974,348.05472,193.81128
641.80347,348.87994,194.09775
642.8316,349.57916,194.52231
643.509,350.3874,194.802
643.509,351.4303,194.802
643.8452,352.3493,194.94089
644.17993,353.264,195.0791
644.17993,354.30197,195.0791
644.84454,355.0805,195.35355
644.84454,356.11365,195.35355
645.17456,357.0131,195.48984
645.50305,357.90836,195.62546
648.3916,357.72455,196.8183
648.3916,358.7317,196.8183
609.68964,312.0535,179.44409
612.74084,313.1164,180.72818
614.71704,314.22382,181.55984
619.0026,315.09344,183.36343
620.83923,316.1395,184.13635
623.5196,317.06995,185.26437
625.25867,318.06683,185.99628
626.1143,319.14404,186.35638
627.38086,320.15643,186.8894
628.6275,321.1529,187.41403
629.44775,322.19153,187.75922
630.25946,323.2194,188.10083
630.66223,324.29935,188.27032
631.4614,325.3084,188.60669
632.25244,326.30716,188.93958
632.64496,327.36542,189.10477
633.42395,328.3461,189.43259
633.8105,329.39114,189.59528
634.19507,330.43094,189.75711
634.5777,331.46545,189.91815
635.3372,332.41327,190.2378
635.3372,333.51895,190.2378
635.7141,334.53796,190.39642
636.8336,335.3753,190.86755
638.3006,336.11124,191.48492
639.382,336.92276,191.94003
639.739,337.9062,192.09027
639.739,338.97955,192.09027
639.739,340.05292,192.09027
639.739,341.12628,192.09027
639.739,342.19968,192.09027
639.382,343.37866,191.94003
639.0233,344.56345,191.7891
639.382,345.53064,191.94003
640.44775,346.26776,192.38855
641.14966,347.1076,192.68393
641.8448,347.93936,192.97647
642.5333,348.76318,193.26624
642.8751,349.6973,193.4101
643.21533,350.627,193.55325
643.21533,351.67487,193.55325
643.8908,352.47318,193.83755
644.2262,353.38974,193.97867
644.2262,354.43018,193.97867
644.89215,355.20993,194.25897
645.22284,356.11365,194.39813
645.22284,357.14673,194.39813
645.22284,358.17984,194.39813
648.4461,357.85678,195.75464
648.13043,359.00134,195.6218
608.6013,312.1606,177.5776
610.1634,313.34747,178.2474
614.1975,314.30542,179.9772
618.05066,315.2204,181.62936
620.8289,316.18402,182.82065
622.18384,317.25668,183.40164
625.2605,318.11533,184.72089
626.11847,319.19513,185.08875
627.3883,320.2098,185.63324
629.05035,321.1529,186.34592
629.8684,322.19153,186.69669
630.678,323.2194,187.04382
631.4792,324.23663,187.38736
632.27216,325.24347,187.72739
632.6656,326.30716,187.89609
633.4465,327.29572,188.23093
633.8339,328.3461,188.39706
634.60297,329.31686,188.7268
634.60297,330.43094,188.7268
635.36426,331.38632,189.05325
636.118,332.33215,189.37643
636.492,333.3516,189.5368
637.2345,334.2806,189.85516
638.6975,335.0273,190.48251
639.0588,336.02264,190.63742
639.4183,337.01312,190.79156
639.4183,338.09174,190.79156
639.4183,339.17035,190.79156
639.776,340.15073,190.94495
640.132,341.12628,191.0976
640.132,342.19968,191.0976
639.4183,343.48483,190.79156
639.0588,344.6728,190.63742
639.4183,345.6421,190.79156
640.83887,346.26776,191.4007
641.88635,346.99426,191.84985
642.57635,347.82455,192.14569
643.2597,348.64697,192.43872
643.2597,349.6973,192.43872
642.9188,350.8689,192.29254
642.9188,351.92175,192.29254
643.2597,352.84836,192.43872
644.2727,353.51608,192.87308
644.2727,354.55896,192.87308
644.6071,355.47058,193.01648
645.27136,356.24548,193.30127
645.60114,357.14673,193.44269
645.9293,358.0438,193.58344
647.86694,358.25705,194.41425
647.22705,359.54816,194.13986
609.6017,313.4263,176.59848
613.67206,314.38797,178.37628
617.5588,315.30624,180.07388
619.90015,316.31903,181.09653
621.72687,317.35162,181.89441
623.51385,318.36172,182.67493
626.54926,319.19513,184.0007
626.97363,320.3174,184.18607
628.64886,321.26434,184.91776
629.06213,322.36646,185.09827
630.2891,323.34045,185.63416
631.4971,324.29935,186.16177
632.292,325.3084,186.50897
633.07874,326.30716,186.8526
634.24396,327.22638,187.36151
634.6284,328.27426,187.52945
635.0109,329.31686,187.6965
635.77014,330.27786,188.02814
636.5218,331.22925,188.35645
637.266,332.17114,188.68149
637.6353,333.1859,188.84277
638.36847,334.11118,189.163
639.0944,335.0273,189.48007
639.0944,336.11124,189.48007
639.0944,337.19516,189.48007
639.0944,338.27908,189.48007
639.4547,339.26645,189.63745
639.81323,340.24896,189.79404
640.17,341.2267,189.94986
640.525,342.19968,190.10495
639.81323,343.48483,189.79404
639.0944,344.78265,189.48007
639.81323,345.6421,189.79404
640.87836,346.3802,190.25928
642.27466,346.99426,190.86911
643.3043,347.71033,191.31888
643.3043,348.76318,191.31888
642.6195,350.05518,191.01974
642.6195,351.1131,191.01974
642.96277,352.04608,191.16968
643.6443,352.84836,191.46735
643.98267,353.77054,191.61514
644.3194,354.68835,191.7622
644.65454,355.60187,191.9086
644.9881,356.51102,192.05429
644.9881,357.55145,192.05429
646.30676,358.0438,192.63022
648.23914,358.25705,193.47424
647.60095,359.54816,193.1955
609.5573,313.46606,175.16302
611.111,314.64142,175.8541
615.612,315.52515,177.85614
619.8871,316.36453,179.75769
621.26483,317.44757,180.37051
622.6199,318.51282,180.97324
625.2642,319.4023,182.14944
626.98004,320.37164,182.91263
628.24304,321.37698,183.47443
628.6596,322.48462,183.6597
629.074,323.5864,183.84402
630.304,324.55338,184.39117
630.7098,325.63828,184.57162
630.7098,326.7872,184.57162
631.9145,327.71933,185.10748
635.03735,328.27426,186.49655
635.7984,329.24295,186.83505
636.5518,330.2019,187.17017
636.92566,331.22925,187.33646
637.29767,332.25143,187.50192
638.03613,333.1859,187.83038
638.76733,334.11118,188.15561
638.76733,335.20044,188.15561
639.1302,336.20026,188.31702
639.1302,337.28687,188.31702
639.1302,338.37347,188.31702
639.4913,339.36304,188.47766
639.8506,340.34772,188.63748
640.2082,341.3276,188.79651
640.9181,342.19968,189.11227
639.8506,343.59152,188.63748
639.4913,344.78265,188.47766
639.8506,345.75406,188.63748
640.56396,346.60663,188.95477
642.3173,347.1076,189.73468
642.66296,348.05472,189.8884
642.3173,349.2336,189.73468
641.9701,350.41824,189.5802
642.3173,351.35965,189.73468
642.66296,352.2965,189.8884
643.3492,353.10144,190.19366
643.6899,354.02744,190.34518
644.02893,354.94904,190.49597
644.36633,355.86624,190.64609
644.70215,356.77908,190.79544
645.0364,357.68762,190.94412
646.68414,358.0438,191.67703
648.2938,358.39172,192.393
647.3325,359.82538,191.96542
605.2172,313.83487,171.77374
610.03534,314.7715,173.95572
613.1072,315.79623,175.34686
617.9953,316.59592,177.56055
621.2556,317.49597,179.03708
622.6145,318.56372,179.65247
624.39185,319.56064,180.45737
625.69965,320.59152,181.04965
627.83295,321.4908,182.01575
629.0858,322.48462,182.58316
629.4991,323.5864,182.7703
629.91016,324.6824,182.95645
630.7258,325.7053,183.32587
630.7258,326.8572,183.32587
631.1305,327.93613,183.5091
631.533,329.0094,183.6914
631.533,330.15533,183.6914
631.9335,331.2201,183.87277
636.95667,331.3076,186.14761
637.32947,332.33215,186.31647
637.7005,333.3516,186.4845
638.43695,334.2806,186.81802
638.8025,335.28766,186.98355
638.8025,336.37964,186.98355
639.16614,337.37903,187.14825
639.16614,338.46832,187.14825
639.5281,339.46008,187.31213
640.2465,340.34772,187.63751
640.60315,341.3276,187.79901
640.60315,342.40622,187.79901
639.8882,343.69873,187.47522
639.16614,345.00403,187.14825
639.5281,345.97968,187.31213
640.95795,346.60663,187.95972
642.3602,347.2215,188.59476
642.3602,348.28708,188.59476
641.66254,349.59247,188.27878
641.66254,350.6632,188.27878
642.0122,351.60858,188.43713
642.70654,352.42267,188.75159
643.0512,353.357,188.90768
643.3942,354.2868,189.06302
643.73566,355.2122,189.21762
644.0754,356.13315,189.37149
644.4135,357.0497,189.52463
644.75,357.96194,189.677
647.7081,357.7736,191.01666
648.0292,358.66293,191.16205
647.0615,360.10516,190.72385
608.9404,314.90396,172.02332
611.0315,316.0295,172.98727
616.0492,316.83395,175.30038
617.9766,317.8929,176.1889
622.60913,318.61493,178.3244
623.9494,319.66766,178.94226
624.8309,320.75958,179.3486
625.7027,321.83966,179.75052
627.8416,322.7247,180.73654
629.5121,323.64868,181.50659
629.9242,324.7474,181.69656
630.74194,325.77264,182.07355
631.1476,326.8572,182.26056
631.55115,327.93613,182.4466
631.95264,329.0094,182.63165
632.352,330.07715,182.81577
632.7493,331.13934,182.9989
632.7493,332.27933,182.9989
633.14453,333.33313,183.18112
637.3615,333.51895,185.12506
637.73334,334.53796,185.29648
638.4715,335.4634,185.63675
638.83777,336.47,185.80563
639.20233,337.47165,185.97366
639.20233,338.56363,185.97366
639.9259,339.46008,186.30725
640.28503,340.44696,186.47281
640.64246,341.429,186.63754
640.64246,342.51025,186.63754
640.28503,343.69873,186.47281
639.20233,345.1155,185.97366
639.20233,346.2075,185.97366
641.3519,346.60663,186.96463
642.05457,347.45093,187.28851
640.99805,348.87793,186.80148
640.64246,350.07913,186.63754
641.3519,350.91058,186.96463
641.7041,351.86,187.12695
642.05457,352.80475,187.28851
642.7504,353.615,187.60928
642.7504,354.68057,187.60928
643.4395,355.47787,187.92697
643.7816,356.40262,188.08466
644.4609,357.186,188.3978
644.7981,358.10007,188.55325
647.43896,358.0438,189.77063
648.40393,358.66293,190.21552
642.05457,362.44156,187.28851
609.94867,316.1728,171.05197
617.4787,317.995,174.58463
620.31335,318.9281,175.91449
623.5022,319.77582,177.41052
624.3908,320.87314,177.82742
625.26984,321.9585,178.23984
626.99945,322.90814,179.05127
628.2724,323.9012,179.64847
629.52515,324.87848,180.2362
630.7581,325.84036,180.81464
631.5694,326.8572,181.19525
631.97186,327.93613,181.38406
631.97186,329.08502,181.38406
632.3722,330.15533,181.57187
632.7705,331.2201,181.75873
633.16675,332.27933,181.94464
633.16675,333.41934,181.94464
633.5609,334.47018,182.12955
633.5609,335.60724,182.12955
638.50616,335.5519,184.44962
638.50616,336.6521,184.44962
638.50616,337.75226,184.44962
639.23865,338.6594,184.79324
639.6022,339.6556,184.96378
640.3238,340.54666,185.30234
640.68195,341.53088,185.47037
640.68195,342.6148,185.47037
639.96387,343.91473,185.13348
639.6022,345.1155,184.96378
639.6022,346.2075,184.96378
640.68195,346.9505,185.47037
641.0383,347.9166,185.63757
640.3238,349.23944,185.30234
639.96387,350.45044,185.13348
640.3238,351.41266,185.30234
641.393,352.1138,185.80396
641.393,353.1924,185.80396
641.7459,354.13855,185.96954
642.09717,355.08008,186.13431
642.09717,356.15344,186.13431
643.14056,356.81174,186.62381
644.16895,357.46054,187.1063
645.1827,358.10007,187.58188
647.49255,358.17984,188.66553
647.49255,359.21295,188.66553
619.36444,319.08868,174.10254
620.76587,320.164,174.77151
624.3903,320.9304,176.50165
625.2717,322.0184,176.9224
626.14355,323.0946,177.33856
627.85913,324.0295,178.1575
629.1218,325.01096,178.76025
629.9525,326.04565,179.15677
630.7744,327.06946,179.54913
631.9912,328.00912,180.12994
632.3925,329.08502,180.32153
633.189,330.07715,180.70172
633.189,331.2201,180.70172
633.189,332.36304,180.70172
633.189,333.506,180.70172
633.58417,334.55933,180.89035
633.97723,335.60724,181.078
633.97723,336.7443,181.078
638.541,336.7438,183.2565
638.541,337.8467,183.2565
638.909,338.85242,183.43216
639.63947,339.7541,183.78085
640.002,340.7476,183.95392
640.7217,341.63327,184.29745
640.36273,342.82544,184.1261
640.36273,343.91473,184.1261
640.002,345.1155,183.95392
640.002,346.2075,183.95392
640.7217,347.06625,184.29745
641.43427,347.9166,184.6376
639.27515,349.7299,183.60693
639.63947,350.70105,183.78085
640.002,351.66742,183.95392
639.63947,352.89044,183.78085
640.002,353.85138,183.95392
640.7217,354.67245,184.29745
641.43427,355.48547,184.6376
641.78796,356.42828,184.80646
642.8387,357.08777,185.30801
644.55634,357.46054,186.12793
646.2332,357.82446,186.9284
647.87085,358.17984,187.71011
646.8929,359.63232,187.24329
621.6791,321.3401,173.85223
625.2736,322.0786,175.59775
626.1478,323.1574,176.02228
627.0126,324.22455,176.4422
628.29224,325.21234,177.0636
629.5515,326.18436,177.67511
630.3799,327.21283,178.07736
630.7908,328.30505,178.27692
632.0106,329.23746,178.86926
633.21136,330.15533,179.45236
633.21136,331.30127,179.45236
633.6075,332.36304,179.64471
634.0016,333.41934,179.83606
634.0016,334.55933,179.83606
634.0016,335.69934,179.83606
634.3936,336.7443,180.02643
634.0016,337.97934,179.83606
634.0016,339.11932,179.83606
634.7836,340.05212,180.21582
638.9449,340.05255,182.23654
639.677,340.9505,182.59204
640.40186,341.83957,182.94403
640.40186,342.93155,182.94403
640.40186,344.02353,182.94403
640.0403,345.22757,182.76846
640.0403,346.32227,182.76846
640.76154,347.1826,183.11871
641.1195,348.15286,183.29254
635.5576,351.1303,180.59167
635.5576,352.25864,180.59167
637.08215,352.84583,181.332
637.8329,353.69058,181.69653
639.677,354.11957,182.59204
640.0403,355.07983,182.76846
641.1195,355.75903,183.29254
642.8832,356.15344,184.14899
643.9209,356.81174,184.6529
646.2847,356.9141,185.80078
646.2847,357.96194,185.80078
645.95184,359.15042,185.63913
645.95184,360.20074,185.63913
623.4932,323.60693,173.38559
625.715,324.48956,174.48291
627.44916,325.41696,175.33942
628.30225,326.4662,175.76074
628.72534,327.578,175.9697
629.5648,328.60727,176.38431
629.98114,329.7045,176.58994
629.98114,330.8779,176.58994
629.1462,332.22284,176.17755
634.026,332.36304,178.58768
627.8769,334.86212,175.55066
627.8769,336.05133,175.55066
634.419,335.69934,178.78177
634.419,336.83932,178.78177
634.419,337.97934,178.78177
634.419,339.11932,178.78177
634.80994,340.15546,178.97485
634.80994,341.29254,178.97485
638.9809,341.2587,181.03488
639.3487,342.25836,181.21655
640.4411,343.03818,181.75607
640.4411,344.13287,181.75607
640.4411,345.22757,181.75607
640.4411,346.32227,181.75607
640.80164,347.2995,181.93414
640.80164,348.39148,181.93414
635.19885,351.39346,179.16696
634.80994,352.66312,178.97485
637.4911,352.84583,180.29907
638.61127,353.55554,180.85233
639.71466,354.25464,181.39728
640.80164,354.94336,181.93414
642.5779,355.34967,182.8114
643.9678,355.88126,183.4979
645.33105,356.40262,184.1712
646.6684,356.9141,184.83173
646.3365,358.10007,184.66776
645.33105,359.57635,184.1712
622.5816,325.0374,171.5727
624.3888,325.97928,172.48032
627.8858,326.6094,174.23663
627.457,327.87726,174.02127
627.8858,328.99426,174.23663
628.7365,330.02423,174.66391
629.15845,331.1265,174.87582
628.7365,332.39627,174.66391
628.3123,333.6729,174.45084
628.3123,334.86212,174.45084
628.7365,335.9543,174.66391
628.7365,337.14032,174.66391
635.22626,336.7443,177.92331
635.22626,337.88135,177.92331
634.8364,339.11932,177.72751
634.8364,340.25934,177.72751
634.8364,341.39932,177.72751
635.22626,342.4296,177.92331
637.9001,342.79382,179.26617
639.38574,343.47006,180.01236
640.1175,344.3532,180.37985
640.1175,345.45337,180.37985
640.1175,346.55353,180.37985
640.48065,347.53503,180.56223
640.1175,348.75385,180.37985
633.6546,352.06332,177.13394
634.0506,353.07388,177.33282
636.3839,353.38696,178.5047
639.01715,353.55554,179.82721
640.842,353.98514,180.74371
642.26953,354.538,181.46066
643.32184,355.21454,181.9892
644.7013,355.74615,182.68198
645.381,356.53833,183.02338
646.05426,357.32294,183.36151
645.71844,358.51843,183.19284
645.04193,359.86374,182.85309
628.3123,369.34937,174.45084
620.2527,325.46466,169.01328
620.72266,326.64236,169.25323
621.65454,327.735,169.7291
621.65454,328.97784,169.7291
622.1166,330.13574,169.96503
628.3224,330.1867,173.13388
628.3224,331.37915,173.13388
628.74774,332.48367,173.35104
629.1708,333.58228,173.56708
629.1708,334.7683,173.56708
629.1708,335.9543,173.56708
629.1708,337.14032,173.56708
629.1708,338.32635,173.56708
629.1708,339.51236,173.56708
629.59155,340.58917,173.78192
634.86304,340.36374,176.47363
635.25385,341.39932,176.67322
635.25385,342.53934,176.67322
635.64264,343.56665,176.87173
637.178,344.2471,177.6557
638.309,345.0276,178.23325
639.79065,345.68143,178.9898
639.79065,346.7871,178.9898
639.79065,347.8928,178.9898
640.1564,348.87585,179.17657
633.67834,352.1994,175.86871
634.07526,353.21225,176.07141
636.41425,353.524,177.26575
638.309,353.9627,178.23325
640.5203,354.25464,179.3624
642.6664,354.538,180.45825
643.36774,355.34967,180.81638
644.407,356.017,181.34702
644.75006,356.9494,181.52219
645.4312,357.7377,181.87
645.4312,358.80072,181.87
629.59155,366.61148,173.78192
629.59155,367.7943,173.78192
630.0101,368.7925,173.99564
621.1803,327.8923,168.09729
622.5704,328.89636,168.81882
622.5704,330.13574,168.81882
622.5704,331.37512,168.81882
623.9372,332.34167,169.52829
623.9372,333.57068,169.52829
623.9372,334.79968,169.52829
629.18317,334.86212,172.25125
628.75903,336.14886,172.0311
629.18317,337.24054,172.25125
629.60504,338.32635,172.47021
629.60504,339.51236,172.47021
630.02466,340.58917,172.68802
630.02466,341.77197,172.68802
630.02466,342.95483,172.68802
630.8572,343.902,173.12015
634.1001,344.136,174.8034
635.2815,344.93555,175.41663
637.2102,345.4887,176.41772
638.34393,346.26172,177.0062
638.34393,347.38144,177.0062
638.34393,348.50116,177.0062
635.67126,350.51932,175.61893
633.70215,352.33618,174.59686
633.3021,353.63165,174.38922
632.9,354.93396,174.18051
639.09015,353.8263,177.39352
640.56024,354.3904,178.15659
642.711,354.67245,179.27295
643.7627,355.34967,179.81885
644.7991,356.017,180.35678
644.7991,357.08777,180.35678
631.2701,363.73267,173.33447
630.8572,365.0793,173.12015
630.8572,366.25583,173.12015
630.8572,367.43237,173.12015
630.8572,368.6089,173.12015
623.0242,330.13574,167.67264
623.4811,331.28714,167.91367
623.9354,332.4321,168.15335
624.3872,333.57068,168.3917
624.8365,334.7029,168.6287
625.2833,335.82886,168.86441
625.7276,336.9486,169.09879
626.1695,338.06216,169.33191
626.1695,339.27762,169.33191
626.60895,340.3817,169.56372
627.04596,341.47974,169.79428
628.3428,342.34015,170.4784
628.7704,343.42096,170.70398
628.3428,344.73798,170.4784
628.3428,345.9369,170.4784
628.3428,347.13583,170.4784
628.3428,348.33475,170.4784
628.3428,349.53366,170.4784
638.00214,347.6234,175.57407
636.86,349.12518,174.97153
636.0887,350.51932,174.56464
634.5219,352.1994,173.7381
633.72614,353.63165,173.31833
632.922,355.07907,172.8941
639.49805,353.8263,176.36322
640.23474,354.664,176.75186
630.45776,359.51447,171.59412
631.6997,360.21252,172.2493
631.6997,361.3859,172.2493
631.28796,362.7263,172.03207
631.6997,363.73267,172.2493
631.6997,364.90607,172.2493
631.6997,366.07947,172.2493
632.5167,366.89664,172.6803
632.922,367.88403,172.8941
624.38666,333.66455,167.01355
624.8372,334.79968,167.2551
625.2853,335.9285,167.49524
625.73083,337.05106,167.7341
626.1739,338.16742,167.97162
626.61456,339.27762,168.20782
627.05273,340.3817,168.44275
627.4886,341.47974,168.67639
627.922,342.57175,168.90872
628.3531,343.65784,169.1398
628.3531,344.86002,169.1398
628.7818,345.9369,169.36963
629.2082,347.00793,169.5982
629.63226,348.0732,169.82553
629.2082,349.3993,169.5982
629.63226,350.45807,169.82553
630.0541,351.51114,170.05167
630.89087,352.41748,170.50024
630.4736,353.74454,170.27655
630.4736,354.93057,170.27655
630.89087,355.96597,170.50024
631.3059,356.99585,170.72272
632.1294,357.86575,171.16415
632.1294,359.03912,171.16415
632.1294,360.21252,171.16415
632.53784,361.2229,171.38312
632.9441,362.22794,171.60089
633.34827,363.22766,171.81754
633.34827,364.39175,171.81754
633.75024,365.38318,172.03305
634.15015,366.36935,172.2474
634.548,367.35037,172.46066
625.734,335.9285,166.36182
626.17834,337.05106,166.60382
626.17834,338.27325,166.60382
626.6202,339.38623,166.84445
627.0596,340.49307,167.08377
627.4966,341.5938,167.32178
627.93115,342.6885,167.55847
628.3634,343.77722,167.79388
628.7933,344.86002,168.02802
629.22076,345.9369,168.26086
629.646,347.00793,168.49243
630.4895,347.94348,168.95184
630.4895,349.1327,168.95184
630.4895,350.32193,168.95184
630.9079,351.37253,169.17972
631.324,352.41748,169.40634
631.73785,353.45685,169.63174
632.14954,354.49066,169.85599
632.14954,355.66718,169.85599
632.559,356.69238,170.07898
632.559,357.86575,170.07898
632.559,359.03912,170.07898
633.7745,359.7354,170.741
633.7745,360.8995,170.741
633.7745,362.0636,170.741
634.17535,363.06113,170.95932
634.17535,364.22214,170.95932
634.9708,365.0405,171.39258
635.3655,366.02243,171.60748
635.758,366.99924,171.82129
626.62585,341.93985,165.47351
627.50464,342.92395,165.95972
628.3738,343.8973,166.44058
628.8048,344.98273,166.67905
629.6598,345.9369,167.15207
629.6598,347.13583,167.15207
630.0838,348.2036,167.38666
630.9249,349.1327,167.85205
630.9249,350.32193,167.85205
631.34216,351.37253,168.08286
632.1698,352.2772,168.5408
632.5803,353.31415,168.76791
632.98865,354.34558,168.99384
632.98865,355.51898,168.99384
632.98865,356.69238,168.99384
633.39484,357.7121,169.21854
633.7988,358.72644,169.44208
634.20074,359.7354,169.66443
634.20074,360.8995,169.66443
634.60046,361.9001,169.88559
634.99817,362.89545,170.10562
634.99817,364.0534,170.10562
635.78723,364.87048,170.54218
636.1787,365.8503,170.75876
636.5681,366.825,170.97421
584.6469,348.4934,140.5022
586.7467,349.52,141.68216
629.24615,344.98273,165.56421
630.09875,345.9369,166.0433
630.09875,347.13583,166.0433
629.67365,348.46658,165.80441
630.09875,349.53366,166.0433
631.3604,350.32193,166.75226
631.3604,351.51114,166.75226
632.1902,352.41748,167.21854
633.0111,353.31415,167.67987
632.60175,354.6365,167.44983
633.0111,355.66718,167.67987
633.4183,356.69238,167.90866
633.4183,357.86575,167.90866
634.62695,358.57132,168.58786
634.62695,359.7354,168.58786
634.62695,360.8995,168.58786
634.62695,362.0636,168.58786
634.62695,363.22766,168.58786
634.62695,364.39175,168.58786
633.82336,365.904,168.13626
635.8166,366.19543,169.25638
635.4221,367.5273,169.0347
587.3078,344.9228,140.26495
587.9961,346.29422,140.65775
595.264,346.0656,144.80524
623.0021,346.9072,160.63422
623.92633,347.89105,161.16165
625.2932,348.7264,161.94171
627.0803,349.41,162.96149
628.82806,350.07858,163.95886
629.68756,351.0101,164.44937
630.11383,352.07315,164.6926
630.11383,353.27536,164.6926
630.5378,354.32935,164.93454
631.3787,355.2278,165.41443
631.79584,356.268,165.65247
632.2107,357.3026,165.88919
632.2107,358.48862,165.88919
632.2107,359.67462,165.88919
631.79584,361.02487,165.65247
632.2107,362.04666,165.88919
632.2107,363.23267,165.88919
633.0337,364.07385,166.35886
633.4419,365.0793,166.5918
633.4419,366.25583,166.5918
633.4419,367.43237,166.5918
633.84796,368.4262,166.82352
587.17773,340.46628,138.44733
587.8689,341.85797,138.84778
591.9168,342.5037,141.19327
592.57544,343.8554,141.57489
594.5248,344.89426,142.7044
597.06354,345.76013,144.17545
597.06354,347.2214,144.17545
624.384,345.3912,160.0057
624.84094,346.50922,160.27048
626.1963,347.35388,161.05582
627.52905,348.18442,161.82806
629.27185,348.86646,162.83789
629.7016,349.94122,163.08688
630.554,350.87097,163.58081
630.554,352.07315,163.58081
630.554,353.27536,163.58081
630.97675,354.32935,163.82574
632.23126,355.0788,164.55267
632.23126,356.268,164.55267
632.64496,357.3026,164.79236
632.64496,358.48862,164.79236
632.64496,359.67462,164.79236
632.64496,360.86066,164.79236
632.64496,362.04666,164.79236
633.0564,363.063,165.03076
633.46564,364.07385,165.26788
634.2776,364.90607,165.73834
634.2776,366.07947,165.73834
634.2776,367.25284,165.73834
634.2776,368.4262,165.73834
590.46906,336.8761,138.63007
591.1394,338.26105,139.02441
593.1232,339.36743,140.19138
593.1232,340.86343,140.19138
593.7755,342.21613,140.5751
595.067,343.41333,141.33484
598.8394,345.45868,143.55392
598.22107,347.06537,143.19019
625.2973,344.01645,159.1178
625.75037,345.1352,159.38431
627.5373,345.86078,160.43549
629.28485,346.5703,161.46347
629.7157,347.65436,161.71692
630.5704,348.59915,162.21967
630.9942,349.6688,162.469
631.4158,350.7326,162.71698
631.4158,351.93152,162.71698
631.835,352.9863,162.96362
632.252,354.03537,163.2089
633.0792,354.93057,163.6955
633.0792,356.11658,163.6955
633.0792,357.3026,163.6955
633.8976,358.1755,164.17691
633.8976,359.3552,164.17691
633.4895,360.69733,163.93686
633.8976,361.7145,164.17691
634.3035,362.7263,164.41571
634.3035,363.9028,164.41571
634.7072,364.90607,164.6532
635.1088,365.904,164.88943
635.1088,367.07425,164.88943
635.5083,368.06378,165.12442
593.671,334.87946,138.80789
593.0161,336.49933,138.41681
594.3215,337.74332,139.19629
594.9675,339.102,139.58206
626.65466,341.29013,158.50311
627.1014,342.41028,158.76987
627.1014,343.64618,158.76987
629.72986,344.1394,160.33939
630.5868,345.10608,160.8511
631.0118,346.1882,161.10486
631.0118,347.39368,161.10486
631.85474,348.33475,161.60822
631.85474,349.53366,161.60822
632.2728,350.59497,161.85785
632.6886,351.6505,162.10611
633.1022,352.70035,162.35306
633.5135,353.74454,162.59866
633.5135,354.93057,162.59866
633.5135,356.11658,162.59866
633.9226,357.1488,162.84296
634.3295,358.1755,163.08594
634.3295,359.3552,163.08594
634.3295,360.53485,163.08594
634.7343,361.54977,163.32764
634.7343,362.7263,163.32764
635.1369,363.73267,163.56802
635.53735,364.7337,163.80716
635.53735,365.904,163.80716
635.93567,366.89664,164.04501
636.7261,367.7052,164.51697
592.90826,332.1054,136.63013
593.56573,333.49716,137.0286
