624.83386,339.48752,274.9077
625.713,340.9464,274.76978
624.83386,342.74487,274.9077
622.15717,344.92703,275.3277
615.6719,347.95923,276.34534
616.6196,349.44153,276.19662
617.5601,350.91248,276.04904
618.49347,352.3723,275.9026
618.49347,354.04422,275.9026
617.5601,355.94736,276.04904
617.5601,357.62564,276.04904
618.49347,359.06,275.9026
619.4198,360.4835,275.75726
621.2516,361.6454,275.46982
622.15717,363.04327,275.3277
623.94824,364.17322,275.0467
624.83386,365.54626,274.9077
625.713,366.90924,274.76978
625.713,368.5319,274.76978
625.713,370.15457,274.76978
629.1656,370.66296,274.22803
630.0131,371.9828,274.09503
630.0131,373.5761,274.09503
631.68994,374.59396,273.8319
634.9724,375.02692,273.31686
637.37396,375.7295,272.94003
639.7255,376.41742,272.57104
642.02875,377.09122,272.20966
645.027,377.47134,271.7392
648.66254,377.56573,271.16873
651.48505,377.9284,270.72583
652.8687,378.82495,270.50873
625.61163,284.15277,273.15894
626.4846,285.80927,273.02792
628.2116,287.48117,272.76874
629.9136,289.12888,272.51334
629.9136,290.72223,272.51334
629.9136,292.31555,272.51334
631.5912,293.91675,272.26157
632.42096,295.49686,272.13702
632.42096,297.07312,272.13702
633.2448,298.63635,272.0134
634.0628,300.1885,271.89062
635.6815,301.70593,271.6477
635.6815,303.25995,271.6477
636.48236,304.77948,271.52753
637.2776,306.28836,271.40817
637.2776,307.8315,271.40817
637.2776,309.37463,271.40817
636.48236,310.9737,271.52753
635.6815,312.58405,271.6477
635.6815,314.13806,271.6477
635.6815,315.69208,271.6477
635.6815,317.2461,271.6477
634.875,318.88434,271.76874
634.0628,320.5342,271.89062
634.875,322.00336,271.76874
633.2448,323.76645,272.0134
633.2448,325.3371,272.0134
632.42096,327.02185,272.13702
630.75543,328.84015,272.387
629.06573,330.6848,272.64056
628.2116,332.41974,272.76874
627.35126,334.1673,272.8979
626.4846,335.9277,273.02792
625.61163,337.70105,273.15894
625.61163,339.32373,273.15894
626.4846,340.77786,273.02792
626.4846,342.3946,273.02792
625.61163,344.19177,273.15894
625.61163,345.81445,273.15894
625.61163,347.4371,273.15894
624.7322,349.25955,273.29095
620.2355,351.9403,273.96576
619.3158,353.8211,274.10382
619.3158,355.4867,274.10382
621.1483,356.68607,273.8288
621.1483,358.33917,273.8288
621.1483,359.99225,273.8288
622.0543,361.39636,273.6928
622.95355,362.78995,273.55786
624.7322,363.9176,273.29095
626.4846,365.02872,273.02792
627.35126,366.3836,272.8979
626.4846,368.26218,273.02792
628.2116,369.33356,272.76874
629.9136,370.38943,272.51334
631.5912,371.43015,272.26157
630.75543,373.2931,272.387
632.42096,374.30933,272.13702
635.6815,374.74475,271.6477
638.06726,375.4478,271.28967
640.4035,376.1363,270.93903
642.6919,376.81067,270.5956
644.93384,377.47134,270.25916
649.9922,377.02008,269.5
652.08905,377.65707,269.1853
653.4643,378.55243,268.97894
626.38367,284.19257,271.42303
627.2507,285.84286,271.29883
628.9658,287.50845,271.05313
629.8141,289.12888,270.93164
630.65625,290.7376,270.81097
631.4924,292.33484,270.69122
631.4924,293.91675,270.69122
632.3225,295.49686,270.5723
632.3225,297.07312,270.5723
632.3225,298.64935,270.5723
633.14667,300.20697,270.45422
634.77765,301.72964,270.2206
635.5845,303.25995,270.10504
635.5845,304.81396,270.10504
636.3856,306.32803,269.99026
637.18115,307.8315,269.8763
637.9712,309.3245,269.76312
637.9712,310.86224,269.76312
637.9712,312.4,269.76312
637.18115,314.00406,269.8763
637.18115,315.54718,269.8763
636.3856,317.16794,269.99026
636.3856,318.7165,269.99026
636.3856,320.26505,269.99026
635.5845,321.90814,270.10504
635.5845,323.4622,270.10504
635.5845,325.0162,270.10504
633.9651,326.79443,270.337
633.14667,328.47836,270.45422
631.4924,330.3006,270.69122
630.65625,332.01535,270.81097
629.8141,333.74252,270.93164
628.9658,335.4822,271.05313
628.1114,337.23456,271.17554
627.2507,338.99976,271.29883
628.9658,340.27957,271.05313
628.1114,342.0494,271.17554
627.2507,343.83218,271.29883
627.2507,345.443,271.29883
626.38367,347.24475,271.42303
627.2507,348.66464,271.29883
628.1114,350.07416,271.17554
622.8511,352.94516,271.92905
622.8511,354.58597,271.92905
623.7441,355.99966,271.80115
624.63043,357.40292,271.67416
624.63043,359.0316,271.67416
623.7441,360.9038,271.80115
623.7441,362.5385,271.80115
625.5103,363.66388,271.54813
628.1114,364.5187,271.17554
628.9658,365.8656,271.05313
628.9658,367.46472,271.05313
629.8141,368.79608,270.93164
630.65625,370.11786,270.81097
631.4924,371.43015,270.69122
631.4924,373.01205,270.69122
633.9651,373.74603,270.337
636.3856,374.46457,269.99026
638.75574,375.1681,269.65076
641.07684,375.85712,269.31827
642.59784,376.81067,269.1004
645.57825,377.1933,268.67346
649.9012,377.02008,268.0542
651.999,377.65707,267.75372
654.056,378.28168,267.45905
625.40894,282.5301,269.93732
626.2827,284.19257,269.8181
627.1501,285.84286,269.69977
628.86597,287.50845,269.4657
629.7146,289.12888,269.3499
631.39355,290.75293,269.12085
632.22406,292.34436,269.00757
632.22406,293.92062,269.00757
633.0486,295.4951,268.89508
632.22406,297.07312,269.00757
632.22406,298.64935,269.00757
633.0486,300.20697,268.89508
633.8673,301.75354,268.7834
634.68024,303.28915,268.6725
635.4874,304.81396,268.56238
636.28894,306.32803,268.453
637.0848,307.8315,268.34442
637.0848,309.37463,268.34442
637.8752,310.86224,268.23663
638.66003,312.3395,268.12955
638.66003,313.8719,268.12955
638.66003,315.4043,268.12955
637.8752,317.01324,268.23663
637.8752,318.551,268.23663
637.0848,320.1766,268.34442
637.0848,321.71973,268.34442
636.28894,323.36218,268.453
636.28894,324.91074,268.453
635.4874,326.57022,268.56238
634.68024,328.24142,268.6725
633.8673,329.92453,268.7834
633.0486,331.61963,268.89508
632.22406,333.32684,269.00757
631.39355,335.0463,269.12085
630.5571,336.77817,269.235
629.7146,338.52255,269.3499
628.86597,340.27957,269.4657
629.7146,341.70923,269.3499
628.86597,343.47784,269.4657
628.86597,345.07697,269.4657
627.1501,347.05383,269.69977
628.86597,348.2752,269.4657
628.86597,349.87433,269.4657
628.86597,351.47345,269.4657
627.1501,353.49707,269.69977
626.2827,355.32837,269.8181
625.40894,357.17316,269.93732
626.2827,358.56183,269.8181
626.2827,360.17856,269.8181
625.40894,362.0412,269.93732
627.1501,363.162,269.69977
628.86597,364.26648,269.4657
630.5571,365.35504,269.235
630.5571,366.94266,269.235
630.5571,368.53027,269.235
632.22406,369.58057,269.00757
632.22406,371.1568,269.00757
632.22406,372.73306,269.00757
633.8673,373.74603,268.7834
635.4874,374.74475,268.56238
638.66003,375.1681,268.12955
640.9821,375.85712,267.81274
643.25684,376.53204,267.50244
645.4855,377.1933,267.1984
649.81024,377.02008,266.6084
652.59937,377.38748,266.2279
653.96686,378.28168,266.04135
624.427,282.484,268.4406
626.1817,284.19257,268.2132
626.1817,285.80927,268.2132
627.9109,287.48117,267.98907
629.61505,289.12888,267.7682
631.29474,290.75293,267.5505
632.1256,292.34436,267.4428
632.1256,293.92062,267.4428
632.9505,295.4951,267.33594
632.9505,297.06573,267.33594
632.9505,298.63635,267.33594
632.9505,300.20697,267.33594
633.7696,301.75354,267.22977
634.5828,303.28915,267.12436
635.3903,304.81396,267.0197
635.3903,306.36798,267.0197
636.1922,307.8766,266.91577
636.1922,309.42514,266.91577
637.7791,310.86224,266.71008
638.56433,312.3395,266.60834
638.56433,313.8719,266.60834
638.56433,315.4043,266.60834
638.56433,316.9367,266.60834
638.56433,318.46912,266.60834
638.56433,320.00153,266.60834
637.7791,321.6265,266.71008
636.9884,323.26288,266.81256
636.1922,324.91074,266.91577
636.1922,326.4593,266.91577
636.1922,328.00784,266.91577
635.3903,329.67825,267.0197
634.5828,331.36047,267.12436
633.7696,333.05463,267.22977
632.9505,334.7609,267.33594
632.1256,336.47934,267.4428
632.1256,338.05557,267.4428
631.29474,339.79202,267.5505
631.29474,341.37393,267.5505
630.45795,343.12857,267.65897
629.61505,344.89594,267.7682
628.7661,346.6761,267.87823
628.7661,348.2752,267.87823
628.7661,349.87433,267.87823
629.61505,351.2693,267.7682
630.45795,352.6542,267.65897
629.61505,354.456,267.7682
628.7661,356.27084,267.87823
627.9109,358.0989,267.98907
627.9109,359.70386,267.98907
627.9109,361.3088,267.98907
627.9109,362.91376,267.98907
629.61505,364.01605,267.7682
631.29474,365.10254,267.5505
632.1256,366.42807,267.4428
632.1256,368.0043,267.4428
633.7696,369.0509,267.22977
633.7696,370.61594,267.22977
632.9505,372.45605,267.33594
634.5828,373.4674,267.12436
636.1922,374.46457,266.91577
639.344,374.89032,266.50726
641.6512,375.57983,266.20825
643.9113,376.25528,265.91534
645.39264,377.1933,265.72333
648.29626,377.56573,265.34705
651.81885,377.65707,264.89047
653.8776,378.28168,264.62366
624.3253,282.484,266.82382
625.2063,284.15277,266.71564
626.08075,285.80927,266.60828
627.81067,287.48117,266.39584
629.51556,289.12888,266.1865
632.02716,290.76813,265.8781
632.02716,292.34436,265.8781
632.8524,293.92447,265.77676
633.6718,295.49332,265.67615
633.6718,297.05838,265.67615
633.6718,298.62344,265.67615
633.6718,300.1885,265.67615
633.6718,301.75354,265.67615
634.4854,303.28915,265.57623
635.2933,304.81396,265.47705
635.2933,306.36798,265.47705
636.09546,307.8766,265.37854
636.09546,309.42514,265.37854
637.6831,310.86224,265.1836
638.46857,312.3395,265.08713
638.46857,313.8719,265.08713
638.46857,315.4043,265.08713
639.24866,316.86072,264.99133
639.24866,318.3878,264.99133
638.46857,320.00153,265.08713
638.46857,321.53394,265.08713
637.6831,323.16425,265.1836
637.6831,324.702,265.1836
636.892,326.34915,265.2807
636.892,327.89227,265.2807
636.09546,329.5564,265.37854
636.09546,331.10495,265.37854
636.09546,332.6535,265.37854
635.2933,334.3403,265.47705
634.4854,336.039,265.57623
634.4854,337.59854,265.57623
632.8524,339.47278,265.77676
632.02716,341.20807,265.8781
632.02716,342.78433,265.8781
631.196,344.53775,265.98016
630.35876,346.3038,266.08295
629.51556,348.0826,266.1865
629.51556,349.67596,266.1865
630.35876,351.06662,266.08295
631.196,352.44727,265.98016
632.02716,353.81808,265.8781
631.196,355.61108,265.98016
629.51556,357.64267,266.1865
630.35876,359.00464,266.08295
630.35876,360.59222,266.08295
628.6662,362.66733,266.29077
630.35876,363.76746,266.08295
632.02716,364.8518,265.8781
632.8524,366.17352,265.77676
633.6718,367.48584,265.67615
635.2933,368.5287,265.47705
635.2933,370.0827,265.47705
634.4854,371.9079,265.57623
635.2933,373.19073,265.47705
636.892,374.18634,265.2807
639.24866,374.89032,264.99133
641.55676,375.57983,264.70792
643.8179,376.25528,264.43027
646.0334,376.9171,264.1582
648.2047,377.56573,263.8916
651.72876,377.65707,263.45886
654.4661,378.0127,263.12274
630.25964,252.6351,264.50696
629.416,254.07529,264.6048
625.1049,282.5301,265.10483
625.9798,284.19257,265.00336
626.84827,285.84286,264.90262
628.56635,287.50845,264.70337
629.416,289.12888,264.6048
631.9287,290.76813,264.31335
631.9287,292.34436,264.31335
632.75433,293.92447,264.2176
633.5741,295.49332,264.1225
634.38806,297.0511,264.0281
635.1962,298.5979,263.9344
634.38806,300.17014,264.0281
634.38806,301.72964,264.0281
635.1962,303.25995,263.9344
635.1962,304.81396,263.9344
635.9988,306.32803,263.84128
636.79565,307.8315,263.74884
635.9988,309.42514,263.84128
636.79565,310.9178,263.74884
638.37286,312.3395,263.56592
638.37286,313.8719,263.56592
638.37286,315.4043,263.56592
639.15326,316.86072,263.4754
639.15326,318.3878,263.4754
639.15326,319.9149,263.4754
638.37286,321.53394,263.56592
638.37286,323.0663,263.56592
638.37286,324.59872,263.56592
637.58704,326.23975,263.65704
636.79565,327.89227,263.74884
636.79565,329.43542,263.74884
635.9988,331.10495,263.84128
636.79565,332.52167,263.74884
635.9988,334.2021,263.84128
635.9988,335.75064,263.84128
635.1962,337.44833,263.9344
634.38806,339.15805,264.0281
633.5741,340.8799,264.1225
634.38806,342.27707,264.0281
632.75433,344.1847,264.2176
631.9287,345.93683,264.31335
630.25964,347.8914,264.50696
629.416,349.67596,264.6048
630.25964,351.06662,264.50696
631.9287,352.24182,264.31335
632.75433,353.60846,264.2176
632.75433,355.1791,264.2176
631.9287,356.97058,264.31335
631.9287,358.5468,264.31335
631.9287,360.12305,264.31335
630.25964,362.17984,264.50696
631.09717,363.52063,264.4098
635.1962,363.86664,263.9344
634.38806,365.66983,264.0281
635.1962,366.97467,263.9344
635.9988,368.27032,263.84128
635.1962,370.0827,263.9344
635.1962,371.63672,263.9344
635.1962,373.19073,263.9344
635.9988,374.46457,263.84128
639.15326,374.89032,263.4754
641.4624,375.57983,263.20758
643.7244,376.25528,262.9452
645.9409,376.9171,262.6881
648.8276,377.292,262.3533
651.63873,377.65707,262.02725
655.05084,377.74542,261.63147
639.0579,245.08722,261.95947
638.27716,246.44608,262.0447
637.49097,247.81442,262.13055
636.6993,249.19235,262.21698
635.90204,250.57996,262.30405
633.4763,251.67181,262.56888
630.16046,252.6351,262.93094
629.3165,254.07529,263.0231
629.3165,255.66864,263.0231
630.99835,257.5329,262.83945
632.65625,259.37054,262.65845
625.0036,282.5301,263.49402
625.8788,284.19257,263.39844
628.4665,285.90933,263.1159
629.3165,287.53552,263.0231
630.99835,289.17102,262.83945
631.83026,290.76813,262.74863
632.65625,292.35382,262.65845
633.4763,293.92828,262.56888
634.29065,295.49158,262.47998
635.0992,297.04388,262.3917
635.0992,298.5979,262.3917
635.0992,300.15192,262.3917
635.0992,301.70593,262.3917
635.0992,303.25995,262.3917
635.0992,304.81396,262.3917
635.0992,306.36798,262.3917
635.90204,307.8766,262.30405
635.90204,309.42514,262.30405
635.90204,310.9737,262.30405
637.49097,312.4,262.13055
638.27716,313.8719,262.0447
639.0579,315.33362,261.95947
639.0579,316.86072,261.95947
639.0579,318.3878,261.95947
639.0579,319.9149,261.95947
639.0579,321.442,261.95947
638.27716,323.0663,262.0447
638.27716,324.59872,262.0447
638.27716,326.13113,262.0447
638.27716,327.66354,262.0447
637.49097,329.31525,262.13055
636.6993,330.97855,262.21698
636.6993,332.52167,262.21698
636.6993,334.06482,262.21698
635.90204,335.75064,262.30405
635.90204,337.2992,262.30405
635.0992,339.00235,262.3917
635.0992,340.55637,262.3917
634.29065,342.27707,262.47998
633.4763,344.01,262.56888
632.65625,345.7553,262.65845
631.83026,347.51306,262.74863
630.16046,349.479,262.93094
630.16046,351.06662,262.93094
631.83026,352.24182,262.74863
632.65625,353.60846,262.65845
632.65625,355.1791,262.65845
633.4763,356.53046,262.56888
633.4763,358.09552,262.56888
633.4763,359.66055,262.56888
632.65625,361.46164,262.65845
631.83026,363.27557,262.74863
635.0992,363.86664,262.3917
635.0992,365.42065,262.3917
635.90204,366.72177,262.30405
636.6993,368.0138,262.21698
635.90204,369.8189,262.30405
635.0992,371.63672,262.3917
635.0992,373.19073,262.3917
637.49097,373.91006,262.13055
639.83325,374.61447,261.8748
642.12744,375.30444,261.6243
643.631,376.25528,261.46014
645.11426,377.1933,261.2982
649.4464,377.02008,260.82516
651.54865,377.65707,260.59564
652.92737,378.55243,260.4451
638.9625,240.50592,260.4435
638.9625,242.03302,260.4435
640.50854,243.91412,260.28522
641.27356,245.60071,260.20688
640.50854,246.9473,260.28522
640.50854,248.4639,260.28522
638.9625,249.6685,260.4435
638.18146,251.04329,260.5235
636.6029,252.27863,260.68512
633.3786,253.23686,261.01526
630.8996,254.36908,261.2691
630.06134,255.81032,261.35492
631.7318,257.66687,261.1839
633.3786,259.49707,261.01526
624.02014,280.85535,261.9735
624.9022,282.5301,261.88318
626.64703,284.23206,261.70453
628.3666,285.90933,261.52844
629.217,287.53552,261.44138
630.8996,289.17102,261.2691
631.7318,290.76813,261.1839
632.5581,292.35382,261.09927
634.19324,293.93207,260.93185
635.00214,295.48984,260.84903
635.00214,297.04388,260.84903
635.00214,298.5979,260.84903
635.00214,300.15192,260.84903
635.80536,301.68237,260.76678
635.80536,303.23093,260.76678
635.80536,304.77948,260.76678
635.80536,306.32803,260.76678
636.6029,307.8315,260.68512
636.6029,309.37463,260.68512
636.6029,310.9178,260.68512
638.18146,312.3395,260.5235
638.9625,313.80652,260.4435
638.9625,315.33362,260.4435
638.9625,316.86072,260.4435
639.7382,318.30704,260.3641
638.9625,319.9149,260.4435
638.9625,321.442,260.4435
638.18146,323.0663,260.5235
638.18146,324.59872,260.5235
638.18146,326.13113,260.5235
638.18146,327.66354,260.5235
638.18146,329.19595,260.5235
638.18146,330.72836,260.5235
637.39496,332.39078,260.60403
636.6029,334.06482,260.68512
636.6029,335.60794,260.68512
635.80536,337.2992,260.76678
636.6029,338.6942,260.68512
635.80536,340.3963,260.76678
635.00214,342.11038,260.84903
634.19324,343.8366,260.93185
633.3786,345.57507,261.01526
631.7318,347.51306,261.1839
630.8996,349.28345,261.2691
630.8996,350.86536,261.2691
631.7318,352.24182,261.1839
632.5581,353.60846,261.09927
632.5581,355.1791,261.09927
634.19324,356.31274,260.93185
635.00214,357.65057,260.84903
635.00214,359.2046,260.84903
633.3786,361.22562,261.01526
632.5581,363.03226,261.09927
637.39496,363.1458,260.60403
637.39496,364.68353,260.60403
637.39496,366.2213,260.60403
637.39496,367.75906,260.60403
636.6029,369.55695,260.68512
635.80536,371.36746,260.76678
635.00214,373.19073,260.84903
636.6029,374.18634,260.68512
640.50854,374.3405,260.28522
642.0334,375.30444,260.1291
643.5376,376.25528,259.97507
645.7559,376.9171,259.74792
648.6451,377.292,259.4521
651.45856,377.65707,259.164
653.5209,378.28168,258.95285
636.50653,235.30412,259.15326
636.50653,236.84726,259.15326
641.1792,239.55516,258.70654
640.4138,240.88095,258.7797
641.1792,242.57794,258.70654
641.93933,244.2633,258.63385
642.6943,245.9372,258.56168
642.6943,247.4383,258.56168
642.6943,248.93938,258.56168
641.93933,250.28818,258.63385
641.1792,251.64624,258.70654
640.4138,253.01364,258.7797
639.6431,254.3905,258.8534
639.6431,255.91232,258.8534
638.8671,257.304,258.92758
637.2989,258.57867,259.0775
637.2989,260.11642,259.0775
638.08575,261.77014,259.0023
638.08575,263.30252,259.0023
637.2989,264.72968,259.0775
637.2989,266.26746,259.0775
624.8009,280.9074,260.27237
626.54645,282.62125,260.10547
628.2667,284.31018,259.941
629.1175,285.94217,259.85968
629.1175,287.53552,259.85968
629.96216,289.15002,259.77893
631.63336,290.76813,259.61914
633.2808,292.36322,259.46164
634.905,293.93582,259.30637
634.905,295.48984,259.30637
635.7086,297.03668,259.22955
635.7086,298.58524,259.22955
635.7086,300.1338,259.22955
635.7086,301.68237,259.22955
635.7086,303.23093,259.22955
635.7086,304.77948,259.22955
636.50653,306.28836,259.15326
637.2989,307.78674,259.0775
638.08575,309.2747,259.0023
638.08575,310.8071,259.0023
638.08575,312.3395,259.0023
638.8671,313.80652,258.92758
638.8671,315.33362,258.92758
638.8671,316.86072,258.92758
639.6431,318.30704,258.8534
638.8671,319.9149,258.92758
638.8671,321.442,258.92758
638.8671,322.9691,258.92758
638.8671,324.4962,258.92758
638.8671,326.0233,258.92758
638.08575,327.66354,259.0023
638.08575,329.19595,259.0023
638.08575,330.72836,259.0023
637.2989,332.39078,259.0775
637.2989,333.92853,259.0775
636.50653,335.60794,259.15326
636.50653,337.1511,259.15326
636.50653,338.6942,259.15326
636.50653,340.23737,259.15326
635.7086,341.94485,259.22955
635.7086,343.4934,259.22955
634.0958,345.39612,259.38373
632.46,347.32593,259.5401
631.63336,349.08932,259.61914
631.63336,350.66556,259.61914
632.46,352.03784,259.5401
632.46,353.60846,259.5401
634.0958,354.7532,259.38373
635.7086,355.88187,259.22955
634.905,357.65057,259.30637
634.905,359.2046,259.30637
633.2808,361.22562,259.46164
633.2808,362.79068,259.46164
637.2989,363.1458,259.0775
638.8671,364.20068,258.92758
638.08575,365.97366,259.0023
638.08575,367.50607,259.0023
637.2989,369.2968,259.0775
636.50653,371.10007,259.15326
635.7086,372.91602,259.22955
636.50653,374.18634,259.15326
640.4138,374.3405,258.7797
641.93933,375.30444,258.63385
643.44415,376.25528,258.49
646.3933,376.6428,258.20804
648.55383,377.292,258.0015
650.67175,377.9284,257.799
652.7484,378.55243,257.60046
637.2029,235.5124,257.551
638.7718,237.45174,257.41162
640.3191,239.36438,257.2742
641.0848,241.06654,257.20618
642.6005,242.93501,257.07156
643.3507,244.60774,257.0049
643.3507,246.10373,257.0049
643.3507,247.59973,257.0049
643.3507,249.09573,257.0049
642.6005,250.44046,257.07156
641.0848,251.64624,257.20618
641.0848,253.15762,257.20618
641.0848,254.669,257.20618
641.8453,256.31305,257.13864
641.0848,257.69177,257.20618
641.8453,259.3255,257.13864
641.8453,260.83173,257.13864
641.0848,262.22595,257.20618
640.3191,263.62976,257.2742
638.7718,264.93945,257.41162
637.99005,266.36734,257.48108
638.7718,267.99365,257.41162
637.99005,269.43216,257.48108
627.30945,281.06137,258.42972
628.1669,282.71106,258.35358
629.018,284.34885,258.27795
629.018,285.94217,258.27795
629.86304,287.5624,258.2029
629.86304,289.15002,258.2029
630.70197,290.75293,258.1284
631.5349,292.34436,258.0544
633.1831,293.92828,257.90802
633.9984,295.49158,257.8356
634.808,297.04388,257.7637
635.61194,298.58524,257.6923
634.808,300.15192,257.7637
634.808,301.70593,257.7637
634.808,303.25995,257.7637
635.61194,304.77948,257.6923
635.61194,306.32803,257.6923
636.41016,307.8315,257.6214
637.2029,309.3245,257.551
636.41016,310.9178,257.6214
637.2029,312.4,257.551
637.2029,313.93774,257.551
637.2029,315.4755,257.551
637.99005,316.9367,257.48108
637.99005,318.46912,257.48108
637.99005,320.00153,257.48108
638.7718,321.442,257.41162
639.5481,322.8725,257.34268
638.7718,324.4962,257.41162
637.99005,326.13113,257.48108
637.99005,327.66354,257.48108
637.99005,329.19595,257.48108
637.2029,330.85303,257.551
637.2029,332.39078,257.551
636.41016,334.06482,257.6214
636.41016,335.60794,257.6214
636.41016,337.1511,257.6214
636.41016,338.6942,257.6214
635.61194,340.3963,257.6923
634.808,342.11038,257.7637
634.808,343.6644,257.7637
633.9984,345.39612,257.8356
633.1831,347.14014,257.90802
631.5349,349.08932,258.0544
631.5349,350.66556,258.0544
631.5349,352.24182,258.0544
631.5349,353.81808,258.0544
633.9984,354.7532,257.8356
634.808,356.09656,257.7637
634.808,357.65057,257.7637
634.808,359.2046,257.7637
633.9984,360.99127,257.8356
633.9984,362.55078,257.8356
636.41016,363.3844,257.6214
637.99005,364.44125,257.48108
637.99005,365.97366,257.48108
637.2029,367.75906,257.551
637.2029,369.2968,257.551
637.2029,370.83456,257.551
635.61194,372.91602,257.6923
635.61194,374.46457,257.6923
639.5481,374.61447,257.34268
641.0848,375.57983,257.20618
642.6005,376.53204,257.07156
645.5709,376.9171,256.80774
647.7468,377.56573,256.61447
649.87976,378.20157,256.42502
651.97095,378.82495,256.2393
639.45306,236.12863,255.83197
640.9904,238.04378,255.70584
643.25726,240.11975,255.51987
644.0027,241.79633,255.45871
644.0027,243.28728,255.45871
644.0027,244.7782,255.45871
644.0027,246.26913,255.45871
644.74304,247.91934,255.39795
644.0027,249.251,255.45871
643.25726,250.59172,255.51987
643.25726,252.0877,255.51987
643.25726,253.58371,255.51987
643.25726,255.07971,255.51987
643.25726,256.57568,255.51987
644.0027,258.1966,255.45871
644.0027,259.68756,255.45871
644.0027,261.17847,255.45871
643.25726,262.5597,255.51987
643.25726,264.05566,255.51987
643.25726,265.55167,255.51987
641.75116,266.8566,255.64343
640.22437,268.1795,255.76868
640.22437,269.6961,255.76868
640.22437,271.21268,255.76868
631.43646,275.0056,256.4897
631.43646,276.58188,256.4897
631.43646,278.1581,256.4897
630.60315,279.67957,256.55804
630.60315,281.26147,256.55804
630.60315,282.84338,256.55804
630.60315,284.4253,256.55804
630.60315,286.0072,256.55804
630.60315,287.5891,256.55804
631.43646,289.19186,256.4897
631.43646,290.76813,256.4897
632.26385,292.35382,256.42178
633.901,293.93207,256.28748
634.71094,295.48984,256.22104
635.5152,297.03668,256.15506
635.5152,298.58524,256.15506
634.71094,300.15192,256.22104
634.71094,301.70593,256.22104
635.5152,303.23093,256.15506
634.71094,304.81396,256.22104
635.5152,306.32803,256.15506
637.1068,307.78674,256.02448
637.1068,309.3245,256.02448
637.1068,310.86224,256.02448
637.1068,312.4,256.02448
637.1068,313.93774,256.02448
637.89435,315.4043,255.95984
637.89435,316.9367,255.95984
637.89435,318.46912,255.95984
638.6764,319.9149,255.89569
639.45306,321.35068,255.83197
639.45306,322.8725,255.83197
638.6764,324.4962,255.89569
637.89435,326.13113,255.95984
638.6764,327.55035,255.89569
637.89435,329.19595,255.95984
637.1068,330.85303,256.02448
637.1068,332.39078,256.02448
637.1068,333.92853,256.02448
637.1068,335.46628,256.02448
637.1068,337.00403,256.02448
636.3138,338.6942,256.08954
636.3138,340.23737,256.08954
636.3138,341.7805,256.08954
636.3138,343.32364,256.08954
634.71094,345.2184,256.22104
633.901,346.95563,256.28748
632.26385,348.89658,256.42178
632.26385,350.4672,256.42178
632.26385,352.03784,256.42178
633.0853,353.40033,256.3544
633.0853,354.9654,256.3544
634.71094,356.09656,256.22104
635.5152,357.43042,256.15506
635.5152,358.979,256.15506
634.71094,360.7586,256.22104
635.5152,362.0761,256.15506
637.1068,363.1458,256.02448
637.89435,364.44125,255.95984
637.89435,365.97366,255.95984
637.89435,367.50607,255.95984
637.89435,369.03848,255.95984
637.1068,370.83456,256.02448
636.3138,372.64322,256.08954
636.3138,374.18634,256.08954
640.22437,374.3405,255.76868
641.75116,375.30444,255.64343
643.25726,376.25528,255.51987
644.74304,377.1933,255.39795
646.9345,377.84134,255.21817
649.0825,378.4765,255.04193
651.88116,378.82495,254.81232
634.6139,231.77512,254.67838
639.35803,234.6068,254.32126
640.896,236.5324,254.2055
643.1638,238.62376,254.03479
645.386,240.67296,253.86752
646.11676,242.33084,253.81253
646.11676,243.80681,253.81253
646.11676,245.28276,253.81253
646.11676,246.75871,253.81253
646.11676,248.23468,253.81253
646.11676,249.71063,253.81253
646.11676,251.18658,253.81253
646.11676,252.66254,253.81253
645.386,254.00119,253.86752
644.6502,255.34888,253.92291
644.6502,256.83478,253.92291
645.386,258.44394,253.86752
645.386,259.92487,253.86752
646.11676,261.51828,253.81253
645.386,262.8867,253.86752
644.6502,264.2643,253.92291
645.386,265.8485,253.86752
645.386,267.32944,253.86752
643.90955,268.63315,253.97867
643.1638,270.03964,254.03479
642.413,271.45572,254.09131
642.413,272.95682,254.09131
643.1638,274.52765,254.03479
632.9876,275.1476,254.80078
632.9876,276.71268,254.80078
633.80365,278.3369,254.73935
633.80365,279.89642,254.73935
632.9876,281.40784,254.80078
632.9876,282.9729,254.80078
632.9876,284.53796,254.80078
632.9876,286.103,254.80078
632.1658,287.64194,254.86264
632.1658,289.21255,254.86264
632.1658,290.7832,254.86264
632.9876,292.36322,254.80078
633.80365,293.93207,254.73935
634.6139,295.48984,254.67838
635.41846,297.03668,254.6178
635.41846,298.58524,254.6178
635.41846,300.1338,254.6178
635.41846,301.68237,254.6178
635.41846,303.23093,254.6178
635.41846,304.77948,254.6178
635.41846,306.32803,254.6178
637.0108,307.78674,254.49796
637.0108,309.3245,254.49796
637.0108,310.86224,254.49796
637.79865,312.3395,254.43863
637.79865,313.8719,254.43863
637.79865,315.4043,254.43863
637.79865,316.9367,254.43863
637.79865,318.46912,254.43863
639.35803,319.82886,254.32126
639.35803,321.35068,254.32126
639.35803,322.8725,254.32126
638.581,324.4962,254.37976
637.79865,326.13113,254.43863
638.581,327.55035,254.37976
637.79865,329.19595,254.43863
637.79865,330.72836,254.43863
637.79865,332.26074,254.43863
637.0108,333.92853,254.49796
637.0108,335.46628,254.49796
637.0108,337.00403,254.49796
637.0108,338.54178,254.49796
636.2174,340.23737,254.55765
637.0108,341.61728,254.49796
637.0108,343.15503,254.49796
635.41846,345.04196,254.6178
633.80365,346.95563,254.73935
632.9876,348.70517,254.80078
633.80365,350.07465,254.73935
633.80365,351.6342,254.73935
632.9876,353.40033,254.80078
632.9876,354.9654,254.80078
635.41846,355.88187,254.6178
637.0108,356.99478,254.49796
636.2174,358.755,254.55765
636.2174,360.29813,254.55765
637.0108,361.60803,254.49796
637.79865,362.90887,254.43863
637.79865,364.44125,254.43863
637.79865,365.97366,254.43863
637.79865,367.50607,254.43863
637.79865,369.03848,254.43863
637.0108,370.83456,254.49796
637.0108,372.3723,254.49796
637.0108,373.91006,254.49796
638.581,374.89032,254.37976
640.896,375.57983,254.2055
643.1638,376.25528,254.03479
644.6502,377.1933,253.92291
646.84265,377.84134,253.75787
649.6984,378.20157,253.54294
651.0983,379.0992,253.43756
643.07043,235.63177,252.54971
643.07043,237.12776,252.54971
645.29346,239.19205,252.39743
647.47217,241.21513,252.24817
648.90063,243.02704,252.15033
648.1887,244.31601,252.1991
647.47217,245.61354,252.24817
648.1887,247.23856,252.1991
648.1887,248.69983,252.1991
647.47217,250.01195,252.24817
648.1887,251.62238,252.1991
648.1887,253.08365,252.1991
646.75073,254.27487,252.2976
646.02454,255.61444,252.34735
646.02454,257.0904,252.34735
646.02454,258.56635,252.34735
646.02454,260.0423,252.34735
646.75073,261.63,252.2976
646.02454,262.99423,252.34735
646.02454,264.47018,252.34735
646.75073,266.0431,252.2976
646.75073,267.51413,252.2976
646.75073,268.98517,252.2976
645.29346,270.29126,252.39743
644.55743,271.69385,252.44785
644.55743,273.17978,252.44785
645.29346,274.734,252.39743
634.51685,275.28763,253.13568
634.51685,276.84164,253.13568
634.51685,278.39566,253.13568
634.51685,279.94968,253.13568
634.51685,281.5037,253.13568
633.70624,283.01544,253.19122
633.70624,284.57498,253.19122
633.70624,286.1345,253.19122
633.70624,287.694,253.19122
632.0676,289.21255,253.30347
632.8899,290.79816,253.24716
633.70624,292.37256,253.19122
633.70624,293.93207,253.19122
634.51685,295.48984,253.13568
635.3218,297.03668,253.08054
635.3218,298.58524,253.08054
635.3218,300.1338,253.08054
636.12103,301.65897,253.02579
636.12103,303.2021,253.02579
635.3218,304.77948,253.08054
636.12103,306.28836,253.02579
636.91473,307.78674,252.97144
637.70294,309.2747,252.91742
637.70294,310.8071,252.91742
637.70294,312.3395,252.91742
637.70294,313.8719,252.91742
637.70294,315.4043,252.91742
637.70294,316.9367,252.91742
638.48566,318.3878,252.8638
639.26294,319.82886,252.81055
639.26294,321.35068,252.81055
639.26294,322.8725,252.81055
639.26294,324.39432,252.81055
638.48566,326.0233,252.8638
638.48566,327.55035,252.8638
637.70294,329.19595,252.91742
637.70294,330.72836,252.91742
637.70294,332.26074,252.91742
637.70294,333.79315,252.91742
637.70294,335.32556,252.91742
636.91473,337.00403,252.97144
636.91473,338.54178,252.97144
636.91473,340.07953,252.97144
636.91473,341.61728,252.97144
636.91473,343.15503,252.97144
636.12103,344.86676,253.02579
633.70624,346.95563,253.19122
633.70624,348.51514,253.19122
633.70624,350.07465,253.19122
633.70624,351.6342,253.19122
633.70624,353.1937,253.19122
633.70624,354.7532,253.19122
635.3218,355.88187,253.08054
636.91473,356.99478,252.97144
636.91473,358.53253,252.97144
636.91473,360.0703,252.97144
637.70294,361.37646,252.91742
638.48566,362.67355,252.8638
637.70294,364.44125,252.91742
637.70294,365.97366,252.91742
637.70294,367.50607,252.91742
636.91473,369.2968,252.97144
636.91473,370.83456,252.97144
637.70294,372.1033,252.91742
637.70294,373.63568,252.91742
638.48566,374.89032,252.8638
640.80164,375.57983,252.70514
643.8164,375.9804,252.49863
645.29346,376.9171,252.39743
646.75073,377.84134,252.2976
648.90063,378.4765,252.15033
650.3103,379.3753,252.05374
642.2255,233.92848,251.11105
643.7233,235.8326,251.01859
645.9324,237.90298,250.88217
648.0975,239.93219,250.74847
649.5171,241.74658,250.66083
649.5171,243.19823,250.66083
648.80963,244.48349,250.70453
648.80963,245.93994,250.70453
648.80963,247.3964,250.70453
648.80963,248.85283,250.70453
648.80963,250.30928,250.70453
648.80963,251.76572,250.70453
648.80963,253.22217,250.70453
646.6589,254.27487,250.83731
646.6589,255.7459,250.83731
646.6589,257.21692,250.83731
646.6589,258.68796,250.83731
646.6589,260.159,250.83731
646.6589,261.63,250.83731
647.3806,263.20715,250.79276
647.3806,264.6733,250.79276
647.3806,266.13943,250.79276
648.0975,267.6964,250.74847
647.3806,269.07172,250.79276
647.3806,270.53784,250.79276
646.6589,271.92722,250.83731
646.6589,273.39825,250.83731
645.9324,274.80188,250.88217
645.9324,276.27783,250.88217
635.22504,276.90543,251.5433
635.22504,278.454,251.5433
635.22504,280.00256,251.5433
635.22504,281.55112,251.5433
635.22504,283.09967,251.5433
634.4198,284.61172,251.59302
634.4198,286.16574,251.59302
634.4198,287.71976,251.59302
633.6088,289.2535,251.6431
633.6088,290.81305,251.6431
634.4198,292.3818,251.59302
634.4198,293.93582,251.59302
635.22504,295.48813,251.5433
636.02466,297.02957,251.49393
636.02466,298.5727,251.49393
636.02466,300.1158,251.49393
636.02466,301.65897,251.49393
636.02466,303.2021,251.49393
636.8187,304.71124,251.44492
636.8187,306.249,251.44492
636.8187,307.78674,251.44492
637.60724,309.2747,251.39621
637.60724,310.8071,251.39621
637.60724,312.3395,251.39621
637.60724,313.8719,251.39621
637.60724,315.4043,251.39621
638.39026,316.86072,251.34787
638.39026,318.3878,251.34787
638.39026,319.9149,251.34787
639.1679,321.35068,251.29984
639.94025,322.7766,251.25217
639.94025,324.29318,251.25217
639.1679,325.91617,251.29984
639.1679,327.438,251.29984
638.39026,329.07745,251.34787
638.39026,330.60455,251.34787
637.60724,332.26074,251.39621
637.60724,333.79315,251.39621
636.8187,335.46628,251.44492
636.8187,337.00403,251.44492
636.8187,338.54178,251.44492
636.8187,340.07953,251.44492
636.8187,341.61728,251.44492
636.8187,343.15503,251.44492
636.8187,344.69278,251.44492
634.4198,346.77246,251.59302
634.4198,348.32645,251.59302
634.4198,349.8805,251.59302
634.4198,351.4345,251.59302
634.4198,352.98853,251.59302
635.22504,354.3333,251.5433
636.02466,355.66873,251.49393
636.8187,356.99478,251.44492
637.60724,358.31165,251.39621
637.60724,359.84406,251.39621
638.39026,361.14648,251.34787
638.39026,362.67355,251.34787
637.60724,364.44125,251.39621
637.60724,365.97366,251.39621
637.60724,367.50607,251.39621
636.8187,369.2968,251.44492
637.60724,370.5709,251.39621
637.60724,372.1033,251.39621
637.60724,373.63568,251.39621
639.1679,374.61447,251.29984
641.469,375.30444,251.15778
643.7233,375.9804,251.01859
645.9324,376.6428,250.88217
646.6589,377.84134,250.83731
648.80963,378.4765,250.70453
650.91815,379.0992,250.57431
642.88354,234.13577,249.57959
645.8402,236.42703,249.41699
648.0062,238.47092,249.29788
648.7187,240.11415,249.2587
649.42645,241.74658,249.21979
649.42645,243.19823,249.21979
649.42645,244.64987,249.21979
649.42645,246.10153,249.21979
649.42645,247.55318,249.21979
649.42645,249.00482,249.21979
649.42645,250.45647,249.21979
649.42645,251.90813,249.21979
648.7187,253.22217,249.2587
646.567,254.27487,249.37701
646.567,255.7459,249.37701
646.567,257.21692,249.37701
646.567,258.68796,249.37701
646.567,260.159,249.37701
647.289,261.74103,249.33731
647.289,263.20715,249.33731
648.0062,264.77386,249.29788
649.42645,266.42462,249.21979
648.7187,267.78662,249.2587
648.0062,269.15768,249.29788
648.0062,270.61896,249.29788
647.289,272.00397,249.33731
647.289,273.47012,249.33731
646.567,274.8693,249.37701
646.567,276.3403,249.37701
637.51154,277.09418,249.875
636.72266,278.56946,249.9184
636.72266,280.1072,249.9184
636.72266,281.64496,249.9184
636.72266,283.1827,249.9184
635.9283,284.68448,249.96207
635.1283,286.19678,250.00604
635.1283,287.74533,250.00604
634.3227,289.27377,250.05035
634.3227,290.8278,250.05035
634.3227,292.3818,250.05035
635.1283,293.93958,250.00604
635.9283,295.48642,249.96207
635.9283,297.02957,249.96207
636.72266,298.56024,249.9184
636.72266,300.098,249.9184
636.72266,301.63574,249.9184
636.72266,303.1735,249.9184
637.51154,304.67746,249.875
637.51154,306.20987,249.875
637.51154,307.74228,249.875
637.51154,309.2747,249.875
637.51154,310.8071,249.875
637.51154,312.3395,249.875
638.2949,313.80652,249.83191
638.2949,315.33362,249.83191
638.2949,316.86072,249.83191
639.0729,318.30704,249.78915
639.0729,319.82886,249.78915
639.0729,321.35068,249.78915
639.8455,322.7766,249.74664
639.8455,324.29318,249.74664
639.8455,325.80978,249.74664
639.0729,327.438,249.78915
639.8455,328.84296,249.74664
639.0729,330.48163,249.78915
638.2949,332.13165,249.83191
637.51154,333.79315,249.875
636.72266,335.46628,249.9184
637.51154,336.85797,249.875
637.51154,338.39038,249.875
636.72266,340.07953,249.9184
636.72266,341.61728,249.9184
636.72266,343.15503,249.9184
636.72266,344.69278,249.9184
635.1283,346.5905,250.00604
634.3227,348.32645,250.05035
634.3227,349.8805,250.05035
634.3227,351.4345,250.05035
634.3227,352.98853,250.05035
634.3227,354.54254,250.05035
635.9283,355.66873,249.96207
636.72266,356.99478,249.9184
638.2949,358.0923,249.83191
639.0729,359.39624,249.78915
639.8455,360.69125,249.74664
637.51154,362.90887,249.875
636.72266,364.68353,249.9184
637.51154,365.97366,249.875
637.51154,367.50607,249.875
637.51154,369.03848,249.875
637.51154,370.5709,249.875
637.51154,372.1033,249.875
636.72266,373.91006,249.9184
639.0729,374.61447,249.78915
641.3749,375.30444,249.66254
643.6302,375.9804,249.53851
645.10846,376.9171,249.45724
647.289,377.56573,249.33731
648.7187,378.4765,249.2587
649.42645,379.6532,249.21979
644.27905,234.54617,248.0227
647.19745,236.81673,247.8819
648.6277,238.65771,247.8129
649.3358,240.29492,247.77875
649.3358,241.74658,247.77875
650.03925,243.36829,247.74481
650.73804,244.97939,247.71109
650.73804,246.42152,247.71109
650.73804,247.86368,247.71109
650.73804,249.30583,247.71109
650.03925,250.6027,247.74481
649.3358,251.90813,247.77875
649.3358,253.35977,247.77875
647.915,254.54492,247.84729
646.47516,255.7459,247.91675
646.47516,257.21692,247.91675
647.19745,258.80875,247.8819
647.19745,260.2749,247.8819
647.915,261.8513,247.84729
648.6277,263.4173,247.8129
648.6277,264.87372,247.8129
649.3358,266.42462,247.77875
649.3358,267.87625,247.77875
648.6277,269.24307,247.8129
648.6277,270.69952,247.8129
647.915,272.08023,247.84729
647.915,273.5415,247.84729
647.915,275.00278,247.84729
647.915,276.46405,247.84729
645.74805,277.75378,247.95181
637.41583,278.6266,248.35379
637.41583,280.159,248.35379
637.41583,281.6914,248.35379
636.62665,283.1827,248.39188
636.62665,284.72046,248.39188
635.8319,286.2276,248.4302
635.8319,287.77075,248.4302
635.0316,289.29388,248.46881
634.22565,290.8278,248.50769
635.0316,292.39102,248.46881
635.8319,293.9433,248.4302
635.8319,295.48642,248.4302
635.8319,297.02957,248.4302
635.8319,298.5727,248.4302
635.8319,300.1158,248.4302
636.62665,301.63574,248.39188
637.41583,303.14505,248.35379
637.41583,304.67746,248.35379
637.41583,306.20987,248.35379
637.41583,307.74228,248.35379
637.41583,309.2747,248.35379
637.41583,310.8071,248.35379
638.1995,312.27942,248.31598
638.1995,313.80652,248.31598
638.97784,315.2634,248.27844
638.1995,316.86072,248.31598
638.97784,318.30704,248.27844
639.7508,319.74344,248.24115
639.7508,321.26,248.24115
639.7508,322.7766,248.24115
639.7508,324.29318,248.24115
639.7508,325.80978,248.24115
639.7508,327.32635,248.24115
638.97784,328.9598,248.27844
638.97784,330.48163,248.27844
638.1995,332.13165,248.31598
637.41583,333.79315,248.35379
637.41583,335.32556,248.35379
637.41583,336.85797,248.35379
637.41583,338.39038,248.35379
637.41583,339.9228,248.35379
637.41583,341.4552,248.35379
637.41583,342.9876,248.35379
637.41583,344.52,248.35379
635.8319,346.4099,248.4302
634.22565,348.32645,248.50769
634.22565,349.8805,248.50769
634.22565,351.4345,248.50769
635.0316,352.78476,248.46881
635.0316,354.3333,248.46881
635.0316,355.88187,248.46881
636.62665,356.99478,248.39188
638.1995,358.0923,248.31598
638.97784,359.39624,248.27844
638.97784,360.9181,248.27844
637.41583,362.90887,248.35379
636.62665,364.68353,248.39188
638.1995,365.72775,248.31598
638.1995,367.25485,248.31598
637.41583,369.03848,248.35379
637.41583,370.5709,248.35379
636.62665,372.3723,248.39188
636.62665,373.91006,248.39188
637.41583,375.1681,248.35379
642.038,375.03094,248.1308
643.5371,375.9804,248.05847
645.016,376.9171,247.98715
646.47516,377.84134,247.91675
647.915,378.75327,247.84729
649.3358,379.6532,247.77875
644.9235,234.7493,246.51703
647.1059,236.81673,246.42648
648.53674,238.65771,246.3671
649.94885,240.47452,246.3085
650.64795,242.0951,246.27948
650.64795,243.53723,246.27948
651.3425,245.14252,246.25064
651.3425,246.57997,246.25064
650.64795,247.86368,246.27948
650.64795,249.30583,246.27948
650.64795,250.74799,246.27948
649.94885,252.04959,246.3085
649.2451,253.35977,246.3377
648.53674,254.67862,246.3671
647.1059,255.87648,246.42648
647.82367,257.46747,246.39667
648.53674,259.04794,246.3671
649.2451,260.618,246.3377
650.64795,262.28516,246.27948
649.94885,263.62463,246.3085
649.2451,264.97296,246.3377
649.2451,266.42462,246.3377
649.94885,267.9653,246.3085
649.94885,269.41217,246.3085
649.2451,270.77954,246.3377
648.53674,272.15598,246.3671
648.53674,273.6124,246.3671
648.53674,275.06885,246.3671
647.82367,276.46405,246.39667
646.38324,277.81134,246.45645
639.65607,278.7956,246.73563
638.88275,280.26147,246.76773
638.1041,281.73752,246.80005
637.3201,283.2238,246.83258
636.5306,284.72046,246.86536
636.5306,286.2582,246.86536
636.5306,287.79596,246.86536
634.9349,289.29388,246.93155
634.9349,290.84247,246.93155
634.9349,292.39102,246.93155
634.9349,293.93958,246.93155
634.9349,295.48813,246.93155
634.9349,297.03668,246.93155
636.5306,298.56024,246.86536
636.5306,300.098,246.86536
636.5306,301.63574,246.86536
637.3201,303.14505,246.83258
636.5306,304.71124,246.86536
637.3201,306.20987,246.83258
637.3201,307.74228,246.83258
637.3201,309.2747,246.83258
638.1041,310.75232,246.80005
638.1041,312.27942,246.80005
638.1041,313.80652,246.80005
638.88275,315.2634,246.76773
638.88275,316.78522,246.76773
638.1041,318.3878,246.80005
639.65607,319.74344,246.73563
639.65607,321.26,246.73563
639.65607,322.7766,246.73563
640.4241,324.19272,246.70377
639.65607,325.80978,246.73563
639.65607,327.32635,246.73563
638.1041,329.07745,246.80005
637.3201,330.72836,246.83258
637.3201,332.26074,246.83258
637.3201,333.79315,246.83258
637.3201,335.32556,246.83258
637.3201,336.85797,246.83258
637.3201,338.39038,246.83258
637.3201,339.9228,246.83258
637.3201,341.4552,246.83258
637.3201,342.9876,246.83258
637.3201,344.52,246.83258
636.5306,346.23053,246.86536
635.73553,347.95303,246.89835
634.9349,349.68765,246.93155
634.9349,351.2362,246.93155
635.73553,352.58246,246.89835
635.73553,354.12558,246.89835
636.5306,355.45703,246.86536
637.3201,356.77924,246.83258
638.88275,357.87442,246.76773
638.88275,359.39624,246.76773
638.88275,360.9181,246.76773
636.5306,363.1458,246.86536
636.5306,364.68353,246.86536
638.1041,365.72775,246.80005
638.1041,367.25485,246.80005
637.3201,369.03848,246.83258
637.3201,370.5709,246.83258
637.3201,372.1033,246.83258
636.5306,373.91006,246.86536
638.1041,374.89032,246.80005
642.69666,374.75928,246.60947
644.1862,375.7074,246.54764
645.6558,376.6428,246.48663
646.38324,377.84134,246.45645
647.82367,378.75327,246.39667
649.2451,379.6532,246.3377
645.56366,234.95108,245.02148
647.7324,237.00963,244.94608
649.1545,238.84328,244.89664
649.8585,240.47452,244.87216
651.25275,242.26762,244.8237
651.25275,243.70508,244.8237
651.25275,245.14252,244.8237
651.25275,246.57997,244.8237
649.8585,247.70894,244.87216
649.8585,249.15582,244.87216
650.55786,250.74799,244.84787
649.8585,252.04959,244.87216
649.8585,253.49648,244.87216
649.1545,254.81142,244.89664
649.1545,256.26306,244.89664
650.55786,257.9587,244.84787
651.25275,259.51697,244.8237
652.6289,261.17505,244.77588
653.98737,262.8118,244.72864
651.94305,263.93063,244.79971
650.55786,265.16946,244.84787
650.55786,266.6116,244.84787
650.55786,268.05377,244.84787
650.55786,269.4959,244.84787
650.55786,270.93805,244.84787
649.1545,272.2312,244.89664
649.1545,273.68286,244.89664
649.1545,275.1345,244.89664
648.4458,276.5253,244.9213
647.0143,277.86853,244.97104
639.56134,278.7956,245.23013
638.7877,280.26147,245.25702
638.0088,281.73752,245.28409
637.2244,283.2238,245.31137
636.4346,284.72046,245.33884
636.4346,286.2582,245.33884
636.4346,287.79596,245.33884
634.8382,289.29388,245.39432
634.03156,290.8278,245.42236
634.03156,292.3818,245.42236
634.8382,293.93958,245.39432
634.8382,295.48813,245.39432
634.8382,297.03668,245.39432
635.63916,298.5727,245.36649
635.63916,300.1158,245.36649
636.4346,301.63574,245.33884
636.4346,303.1735,245.33884
636.4346,304.71124,245.33884
636.4346,306.249,245.33884
637.2244,307.74228,245.31137
637.2244,309.2747,245.31137
637.2244,310.8071,245.31137
638.0088,312.27942,245.28409
637.2244,313.8719,245.31137
638.7877,315.2634,245.25702
639.56134,316.71027,245.23013
638.7877,318.30704,245.25702
639.56134,319.74344,245.23013
639.56134,321.26,245.23013
639.56134,322.7766,245.23013
639.56134,324.29318,245.23013
639.56134,325.80978,245.23013
638.7877,327.438,245.25702
638.7877,328.9598,245.25702
638.0088,330.60455,245.28409
637.2244,332.26074,245.31137
637.2244,333.79315,245.31137
637.2244,335.32556,245.31137
637.2244,336.85797,245.31137
637.2244,338.39038,245.31137
637.2244,339.9228,245.31137
637.2244,341.4552,245.31137
637.2244,342.9876,245.31137
637.2244,344.52,245.31137
636.4346,346.23053,245.33884
635.63916,347.95303,245.36649
636.4346,349.30603,245.33884
636.4346,350.84378,245.33884
635.63916,352.58246,245.36649
635.63916,354.12558,245.36649
636.4346,355.45703,245.33884
638.0088,356.5652,245.28409
639.56134,357.65808,245.23013
639.56134,359.17468,245.23013
636.4346,361.60803,245.33884
635.63916,363.3844,245.36649
637.2244,364.44125,245.31137
638.7877,365.48355,245.25702
638.7877,367.00537,245.25702
637.2244,369.03848,245.31137
637.2244,370.5709,245.31137
638.0088,371.83612,245.28409
637.2244,373.63568,245.31137
638.7877,374.61447,245.25702
642.6033,374.75928,245.12439
644.0934,375.7074,245.07257
645.56366,376.6428,245.02148
645.56366,378.11874,245.02148
648.4458,378.4765,244.9213
649.8585,379.3753,244.87216
646.9227,235.35059,243.51562
648.35486,237.20126,243.47546
649.0638,238.84328,243.4556
649.7681,240.47452,243.43585
650.46783,242.0951,243.41626
651.16296,243.70508,243.39676
651.16296,245.14252,243.39676
649.7681,246.26205,243.43585
649.7681,247.70894,243.43585
650.46783,249.30583,243.41626
650.46783,250.74799,243.41626
650.46783,252.19012,243.41626
649.7681,253.49648,243.43585
649.7681,254.94336,243.43585
650.46783,256.51657,243.41626
651.16296,258.07953,243.39676
651.8536,259.63232,243.37741
653.22144,261.2843,243.33905
654.5717,262.91507,243.30121
653.89874,264.2307,243.32007
651.8536,265.3634,243.37741
650.46783,266.6116,243.41626
650.46783,268.05377,243.41626
650.46783,269.4959,243.41626
649.0638,270.77954,243.4556
648.35486,272.15598,243.47546
649.0638,273.68286,243.4556
649.0638,275.1345,243.4556
649.0638,276.58615,243.4556
647.6412,277.92532,243.49548
640.2352,278.85117,243.70306
637.9134,280.21042,243.76816
637.12866,281.6914,243.79016
637.12866,283.2238,243.79016
636.3385,284.72046,243.81232
635.5428,286.2276,243.8346
634.74146,287.74533,243.85706
633.9345,289.27377,243.8797
633.9345,290.8278,243.8797
633.9345,292.3818,243.8797
634.74146,293.93958,243.85706
634.74146,295.48813,243.85706
634.74146,297.03668,243.85706
634.74146,298.58524,243.85706
634.74146,300.1338,243.85706
634.74146,301.68237,243.85706
635.5428,303.2021,243.8346
636.3385,304.71124,243.81232
636.3385,306.249,243.81232
636.3385,307.78674,243.81232
637.12866,309.2747,243.79016
637.12866,310.8071,243.79016
637.12866,312.3395,243.79016
637.9134,313.80652,243.76816
638.6927,315.2634,243.7463
638.6927,316.78522,243.7463
638.6927,318.30704,243.7463
638.6927,319.82886,243.7463
639.4666,321.26,243.72461
639.4666,322.7766,243.72461
639.4666,324.29318,243.72461
639.4666,325.80978,243.72461
638.6927,327.438,243.7463
638.6927,328.9598,243.7463
638.6927,330.48163,243.7463
637.12866,332.26074,243.79016
637.12866,333.79315,243.79016
637.9134,335.18585,243.76816
637.12866,336.85797,243.79016
637.12866,338.39038,243.79016
637.12866,339.9228,243.79016
637.12866,341.4552,243.79016
637.12866,342.9876,243.79016
637.12866,344.52,243.79016
636.3385,346.23053,243.81232
636.3385,347.76828,243.81232
636.3385,349.30603,243.81232
636.3385,350.84378,243.81232
636.3385,352.38153,243.81232
636.3385,353.91928,243.81232
636.3385,355.45703,243.81232
637.12866,356.77924,243.79016
638.6927,357.87442,243.7463
638.6927,359.39624,243.7463
636.3385,361.60803,243.81232
635.5428,363.3844,243.8346
638.6927,363.96173,243.7463
638.6927,365.48355,243.7463
637.9134,367.25485,243.76816
637.9134,368.78195,243.76816
637.9134,370.30905,243.76816
637.9134,371.83612,243.76816
637.9134,373.36322,243.76816
639.4666,374.3405,243.72461
642.5098,374.75928,243.63931
643.25775,375.9804,243.61835
644.7385,376.9171,243.57684
646.1995,377.84134,243.53589
