538.9163,374.181,210.52493
541.3754,376.59396,210.12704
541.3754,378.17587,210.12704
540.54987,379.4618,210.26062
539.7302,380.7386,210.39325
538.9163,382.0063,210.52493
539.7302,383.87982,210.39325
538.9163,385.13638,210.52493
536.5091,385.75592,210.91443
534.9323,386.67432,211.16956
548.50305,248.65323,210.6142
548.50305,250.28189,210.6142
548.50305,251.91057,210.6142
549.3856,253.37804,210.47745
549.3856,255.01276,210.47745
550.27484,256.49725,210.33972
550.27484,258.13803,210.33972
552.0732,259.49963,210.06113
557.6339,260.32742,209.19974
558.5857,261.88385,209.0523
556.6894,263.837,209.34604
556.6894,265.5217,209.34604
555.7521,267.31985,209.49124
557.6339,289.07724,209.19974
554.8219,290.83932,209.63535
553.89874,292.52823,209.77835
552.9825,294.20438,209.92029
551.17065,295.87222,210.20096
550.27484,297.5172,210.33972
548.50305,299.14206,210.6142
548.50305,300.77072,210.6142
547.6269,302.37952,210.74991
547.6269,304.0022,210.74991
545.8939,305.56183,211.01837
545.03687,307.1356,211.15112
544.18604,308.69794,211.28293
544.18604,310.29706,211.28293
543.3414,311.84235,211.41376
542.5028,313.3765,211.54367
541.6702,314.89963,211.67264
540.8436,316.41183,211.80069
540.8436,317.9881,211.80069
540.8436,319.56433,211.80069
540.8436,321.1406,211.80069
540.02295,322.62518,211.92783
539.208,324.09924,212.05405
539.208,325.6643,212.05405
539.208,327.22937,212.05405
539.208,328.79443,212.05405
539.208,330.35947,212.05405
539.208,331.92453,212.05405
539.208,333.4896,212.05405
540.02295,335.19025,211.92783
539.208,336.6197,212.05405
539.208,338.18475,212.05405
539.208,339.74982,212.05405
539.208,341.31485,212.05405
539.208,342.8799,212.05405
540.02295,344.61404,211.92783
539.208,346.01,212.05405
539.208,347.57507,212.05405
539.208,349.14014,212.05405
539.208,350.70517,212.05405
539.208,352.27023,212.05405
539.208,353.8353,212.05405
539.208,355.40033,212.05405
538.3989,356.7532,212.17941
538.3989,358.31274,212.17941
538.3989,359.87225,212.17941
538.3989,361.43176,212.17941
539.208,363.22562,212.05405
540.02295,365.03226,211.92783
540.02295,366.6029,211.92783
539.208,367.92078,212.05405
540.02295,369.74414,211.92783
540.8436,371.58057,211.80069
540.8436,373.1568,211.80069
541.6702,375.01205,211.67264
542.5028,376.88068,211.54367
541.6702,378.17587,211.67264
541.6702,379.75778,211.67264
540.8436,381.03806,211.80069
540.8436,382.61432,211.80069
540.8436,384.19055,211.80069
540.02295,385.45047,211.92783
536.7977,385.75592,212.42743
535.2189,386.67432,212.672
553.29175,251.06178,211.5415
552.3813,252.88719,211.6763
552.3813,254.5403,211.6763
552.3813,256.19342,211.6763
555.1335,290.83932,211.26886
555.1335,292.51126,211.26886
554.20917,294.19382,211.4057
552.3813,295.86798,211.6763
551.4776,297.51913,211.81006
549.6903,299.15,212.07465
548.8066,300.77072,212.20547
547.9293,302.37952,212.33533
547.0586,303.9765,212.46423
546.19415,305.56183,212.5922
545.336,307.1356,212.71921
545.336,308.74054,212.71921
545.336,310.3455,212.71921
542.7987,311.78888,213.09482
542.7987,313.3765,213.09482
541.9651,314.89963,213.21823
541.1374,316.41183,213.34076
541.1374,317.9881,213.34076
541.1374,319.56433,213.34076
541.1374,321.1406,213.34076
539.4997,322.5342,213.58319
539.4997,324.09924,213.58319
539.4997,325.6643,213.58319
539.4997,327.22937,213.58319
539.4997,328.79443,213.58319
539.4997,330.35947,213.58319
539.4997,331.92453,213.58319
540.3157,333.61963,213.4624
540.3157,335.19025,213.4624
540.3157,336.7609,213.4624
540.3157,338.3315,213.4624
539.4997,339.74982,213.58319
539.4997,341.31485,213.58319
539.4997,342.8799,213.58319
539.4997,344.44495,213.58319
539.4997,346.01,213.58319
539.4997,347.57507,213.58319
539.4997,349.14014,213.58319
539.4997,350.70517,213.58319
539.4997,352.27023,213.58319
539.4997,353.8353,213.58319
539.4997,355.40033,213.58319
539.4997,356.9654,213.58319
539.4997,358.53046,213.58319
539.4997,360.09552,213.58319
540.3157,361.891,213.4624
541.1374,363.6993,213.34076
541.1374,365.27557,213.34076
541.1374,366.8518,213.34076
541.1374,368.42807,213.34076
541.1374,370.0043,213.34076
541.1374,371.58057,213.34076
542.7987,373.70547,213.09482
544.4841,375.8612,212.84534
542.7987,376.88068,213.09482
541.9651,378.17587,213.21823
541.9651,379.75778,213.21823
541.9651,381.3397,213.21823
541.1374,382.61432,213.34076
541.1374,384.19055,213.34076
540.3157,385.45047,213.4624
537.88513,386.06888,213.8222
536.29315,386.98828,214.05786
556.3777,290.8159,212.77075
555.4451,292.51126,212.9024
554.5196,294.19382,213.03308
553.601,295.8637,213.16275
551.78455,297.51913,213.41919
550.8864,299.15802,213.54596
549.1101,300.77072,213.79675
548.23175,302.37952,213.92075
547.35986,303.9765,214.04382
546.4944,305.56183,214.16602
546.4944,307.17264,214.16602
545.63513,308.74054,214.28732
543.9353,310.249,214.52728
543.0946,311.78888,214.646
543.0946,313.3765,214.646
542.2599,314.89963,214.76382
542.2599,316.4815,214.76382
542.2599,318.06342,214.76382
541.4312,319.56433,214.8808
541.4312,321.1406,214.8808
539.79144,322.5342,215.1123
539.79144,324.09924,215.1123
540.6084,325.76645,214.99698
540.6084,327.3371,214.99698
539.79144,328.79443,215.1123
540.6084,330.47836,214.99698
540.6084,332.04898,214.99698
540.6084,333.61963,214.99698
541.4312,335.32684,214.8808
540.6084,336.7609,214.99698
540.6084,338.3315,214.99698
540.6084,339.90216,214.99698
540.6084,341.47278,214.99698
540.6084,343.0434,214.99698
540.6084,344.61404,214.99698
540.6084,346.1847,214.99698
539.79144,347.57507,215.1123
539.79144,349.14014,215.1123
539.79144,350.70517,215.1123
539.79144,352.27023,215.1123
540.6084,354.03784,214.99698
539.79144,355.40033,215.1123
539.79144,356.9654,215.1123
539.79144,358.53046,215.1123
540.6084,360.32037,214.99698
541.4312,362.12305,214.8808
541.4312,363.6993,214.8808
541.4312,365.27557,214.8808
541.4312,366.8518,214.8808
542.2599,368.68445,214.76382
542.2599,370.26636,214.76382
543.0946,372.11786,214.646
544.7821,374.2621,214.40775
545.63513,376.14838,214.28732
544.7821,377.46033,214.40775
543.9353,378.76282,214.52728
543.0946,380.0559,214.646
543.0946,381.6435,214.646
542.2599,382.9216,214.76382
542.2599,384.5035,214.76382
541.4312,385.76678,214.8808
538.1748,386.06888,215.34052
536.5808,386.98828,215.56555
558.5795,290.76843,214.15674
556.6905,292.49417,214.41049
555.7567,294.18317,214.53595
553.9103,295.8637,214.78397
552.9975,297.5211,214.90659
552.0915,299.16608,215.02829
550.2997,300.7847,215.26901
549.4137,302.3994,215.38803
548.5342,304.0022,215.50616
547.6612,305.59323,215.62344
546.7946,307.17264,215.73984
546.7946,308.78345,215.73984
545.93427,310.3455,215.85541
545.0802,311.8962,215.97015
544.2323,313.4357,216.08405
542.55475,314.89963,216.30942
542.55475,316.4815,216.30942
542.55475,318.06342,216.30942
541.725,319.56433,216.42087
541.725,321.1406,216.42087
540.9011,322.62518,216.53152
540.9011,324.19583,216.53152
540.9011,325.76645,216.53152
540.9011,327.3371,216.53152
540.9011,328.9077,216.53152
541.725,330.59808,216.42087
541.725,332.17435,216.42087
541.725,333.75058,216.42087
541.725,335.32684,216.42087
540.9011,336.7609,216.53152
540.9011,338.3315,216.53152
540.9011,339.90216,216.53152
541.725,341.63184,216.42087
541.725,343.20807,216.42087
541.725,344.78433,216.42087
540.9011,346.1847,216.53152
540.9011,347.7553,216.53152
540.9011,349.32593,216.53152
540.0831,350.70517,216.64142
540.9011,352.4672,216.53152
541.725,354.24182,216.42087
541.725,355.81808,216.42087
540.9011,357.1791,216.53152
540.9011,358.74973,216.53152
541.725,360.5468,216.42087
542.55475,362.3568,216.30942
541.725,363.6993,216.42087
542.55475,365.52063,216.30942
543.3905,367.35504,216.19714
543.3905,368.94266,216.19714
544.2323,370.79608,216.08405
545.0802,372.66296,215.97015
546.7946,374.82684,215.73984
545.93427,376.14838,215.85541
545.0802,377.46033,215.97015
545.0802,379.05945,215.97015
545.0802,380.65857,215.97015
544.2323,381.9495,216.08405
542.55475,382.9216,216.30942
542.55475,384.5035,216.30942
540.9011,385.45047,216.53152
539.2709,386.38403,216.75052
537.6636,387.30447,216.96643
558.8947,290.76843,215.80908
557.0033,292.49417,216.05026
556.06836,294.18317,216.16946
554.2196,295.8637,216.40521
553.3056,297.5211,216.52176
552.39844,299.16608,216.63742
550.6044,300.7847,216.86618
550.6044,302.41943,216.86618
549.7172,304.02808,216.97931
548.8367,305.62488,217.09158
547.9625,307.20996,217.20303
547.0948,308.78345,217.31369
546.2334,310.3455,217.42352
545.37823,311.8962,217.53256
544.52924,313.4357,217.64081
543.6864,314.96408,217.74829
542.8496,316.4815,217.85498
542.8496,318.06342,217.85498
542.01874,319.56433,217.96094
542.01874,321.1406,217.96094
542.01874,322.71683,217.96094
541.19385,324.19583,218.0661
541.19385,325.76645,218.0661
542.01874,327.4456,217.96094
542.01874,329.02185,217.96094
542.01874,330.59808,217.96094
542.01874,332.17435,217.96094
542.01874,333.75058,217.96094
541.19385,335.19025,218.0661
542.01874,336.90308,217.96094
541.19385,338.3315,218.0661
542.01874,340.05557,217.96094
542.01874,341.63184,217.96094
542.01874,343.20807,217.96094
542.01874,344.78433,217.96094
542.01874,346.36057,217.96094
542.01874,347.93683,217.96094
541.19385,349.32593,218.0661
541.19385,350.89658,218.0661
542.01874,352.66556,217.96094
542.01874,354.24182,217.96094
542.01874,355.81808,217.96094
542.8496,357.61108,217.85498
542.8496,359.193,217.85498
542.8496,360.7749,217.85498
542.8496,362.3568,217.85498
543.6864,364.17984,217.74829
544.52924,366.01605,217.64081
545.37823,367.8656,217.53256
545.37823,369.46472,217.53256
546.2334,371.33356,217.42352
547.9625,373.4956,217.20303
547.9625,375.11234,217.20303
547.0948,376.43768,217.31369
546.2334,377.75336,217.42352
545.37823,379.05945,217.53256
545.37823,380.65857,217.53256
545.37823,382.25772,217.53256
543.6864,383.2311,217.74829
542.8496,384.5035,217.85498
541.19385,385.45047,218.0661
539.5616,386.38403,218.27423
538.7541,387.6229,218.3772
557.3161,290.8159,217.69
557.3161,292.49417,217.69
556.37994,294.18317,217.80301
553.6137,295.86798,218.1369
552.70544,297.51913,218.24655
551.8039,299.15802,218.35535
550.909,300.7847,218.46338
550.909,302.41943,218.46338
550.0208,304.02808,218.57059
549.1391,305.62488,218.677
548.26385,307.20996,218.78265
547.395,308.78345,218.88751
546.53253,310.3455,218.99161
545.6763,311.8962,219.09497
545.6763,313.49533,219.09497
544.82623,315.02902,219.19757
543.9823,316.5517,219.29944
543.1444,318.06342,219.40057
542.31256,319.56433,219.50098
542.31256,321.1406,219.50098
542.31256,322.71683,219.50098
542.31256,324.2931,219.50098
542.31256,325.86932,219.50098
543.1444,327.55487,219.40057
543.1444,329.13678,219.40057
542.31256,330.59808,219.50098
542.31256,332.17435,219.50098
542.31256,333.75058,219.50098
542.31256,335.32684,219.50098
542.31256,336.90308,219.50098
542.31256,338.47934,219.50098
542.31256,340.05557,219.50098
543.1444,341.79202,219.40057
542.31256,343.20807,219.50098
542.31256,344.78433,219.50098
543.1444,346.53775,219.40057
542.31256,347.93683,219.50098
541.48663,349.32593,219.60068
542.31256,351.08932,219.50098
542.31256,352.66556,219.50098
542.31256,354.24182,219.50098
543.1444,356.02917,219.40057
543.9823,357.8294,219.29944
543.9823,359.41702,219.29944
545.6763,361.4691,219.09497
545.6763,363.0682,219.09497
545.6763,364.66733,219.09497
545.6763,366.26648,219.09497
546.53253,368.12366,218.99161
546.53253,369.7286,218.99161
547.395,371.60522,218.88751
549.1391,373.77725,218.677
549.1391,375.39993,218.677
550.0208,377.3183,218.57059
549.1391,378.64526,218.677
548.26385,379.96252,218.78265
547.395,381.2701,218.88751
546.53253,382.56818,218.99161
545.6763,383.85684,219.09497
544.82623,385.1362,219.19757
543.1444,386.0854,219.40057
541.48663,387.02112,219.60068
539.0437,387.6229,219.89554
557.6289,292.49417,219.32977
556.6915,294.18317,219.43655
553.9218,295.86798,219.75204
553.0124,297.51913,219.85565
553.0124,299.16608,219.85565
552.1097,300.7988,219.9585
551.2137,302.41943,220.06055
550.32434,304.02808,220.16187
549.4415,305.62488,220.26242
548.5652,307.20996,220.36224
547.69525,308.78345,220.46133
546.83167,310.3455,220.55972
545.9743,311.8962,220.65738
545.9743,313.49533,220.65738
545.12317,315.02902,220.75433
544.2782,316.5517,220.85059
543.4393,318.06342,220.94617
543.4393,319.64532,220.94617
543.4393,321.22723,220.94617
543.4393,322.80914,220.94617
543.4393,324.39105,220.94617
543.4393,325.97296,220.94617
543.4393,327.55487,220.94617
542.6063,329.02185,221.04105
543.4393,330.7187,220.94617
543.4393,332.3006,220.94617
542.6063,333.75058,221.04105
542.6063,335.32684,221.04105
542.6063,336.90308,221.04105
543.4393,338.6282,220.94617
543.4393,340.2101,220.94617
543.4393,341.79202,220.94617
543.4393,343.37393,220.94617
543.4393,344.95584,220.94617
543.4393,346.53775,220.94617
543.4393,348.11966,220.94617
543.4393,349.70157,220.94617
543.4393,351.28345,220.94617
544.2782,353.06662,220.85059
544.2782,354.6542,220.85059
545.9743,356.67172,220.65738
546.83167,358.49396,220.55972
549.4415,360.79584,220.26242
548.5652,362.17856,220.36224
548.5652,363.7953,220.36224
548.5652,365.412,220.36224
547.69525,366.77277,220.46133
547.69525,368.3836,220.46133
549.4415,370.5319,220.26242
550.32434,372.4323,220.16187
550.32434,374.06097,220.16187
550.32434,375.68964,220.16187
550.32434,377.3183,220.16187
549.4415,378.64526,220.26242
549.4415,380.26794,220.26242
548.5652,381.57922,220.36224
547.69525,382.88092,220.46133
546.83167,384.17313,220.55972
546.83167,385.77808,220.55972
545.12317,386.72952,220.75433
542.6063,387.34305,221.04105
540.9582,388.26648,221.22879
557.9417,292.49417,220.96951
556.0718,294.19382,221.16986
554.2299,295.86798,221.36722
554.2299,297.5211,221.36722
554.2299,299.1742,221.36722
553.31934,300.813,221.46478
552.4155,302.4396,221.56161
550.62787,304.02808,221.75314
549.74396,305.62488,221.84784
549.74396,307.24756,221.84784
548.8665,308.8267,221.94186
547.1308,310.3455,222.1278
546.27234,311.8962,222.21979
546.27234,313.49533,222.21979
545.42017,315.02902,222.3111
544.5741,316.5517,222.40176
543.7341,318.06342,222.49176
543.7341,319.64532,222.49176
544.5741,321.3145,222.40176
543.7341,322.80914,222.49176
543.7341,324.39105,222.49176
543.7341,325.97296,222.49176
543.7341,327.55487,222.49176
543.7341,329.13678,222.49176
544.5741,330.84015,222.40176
543.7341,332.3006,222.49176
543.7341,333.8825,222.49176
544.5741,335.60297,222.40176
544.5741,337.19055,222.40176
545.42017,338.9292,222.3111
544.5741,340.36578,222.40176
543.7341,341.79202,222.49176
544.5741,343.541,222.40176
546.27234,345.47784,222.21979
545.42017,346.89594,222.3111
545.42017,348.48926,222.3111
554.2299,352.0736,221.36722
554.2299,353.72675,221.36722
553.31934,355.16168,221.46478
553.31934,356.80862,221.46478
553.31934,358.45557,221.46478
553.31934,360.10248,221.46478
553.31934,361.74942,221.46478
553.31934,363.39636,221.46478
551.5184,364.5385,221.65771
550.62787,365.9176,221.75314
551.5184,367.80795,221.65771
551.5184,369.44266,221.65771
551.5184,371.07736,221.65771
552.4155,372.99396,221.56161
551.5184,374.3468,221.65771
551.5184,375.9815,221.65771
552.4155,377.91635,221.56161
552.4155,379.55713,221.56161
551.5184,380.88565,221.65771
549.74396,381.89062,221.84784
548.8665,383.19595,221.94186
548.8665,384.81268,221.94186
547.9955,386.10257,222.03519
546.27234,387.05508,222.21979
543.7341,387.6673,222.49176
541.2499,388.26648,222.7579
558.2545,292.49417,222.60928
557.3148,294.18317,222.70361
556.3822,295.85944,222.79724
555.45667,297.52304,222.89014
553.6263,299.16608,223.07388
553.6263,300.813,223.07388
551.82306,302.41943,223.25491
550.93146,304.02808,223.34442
550.0464,305.62488,223.43326
550.0464,307.24756,223.43326
548.2957,308.78345,223.60901
547.42993,310.3455,223.69592
546.57043,311.8962,223.7822
545.71716,313.4357,223.86786
545.71716,315.02902,223.86786
544.87,316.5517,223.95291
544.02893,318.06342,224.03735
544.87,319.7269,223.95291
544.87,321.3145,223.95291
544.87,322.90213,223.95291
544.87,324.48972,223.95291
544.87,326.07733,223.95291
544.02893,327.55487,224.03735
544.87,329.25253,223.95291
546.57043,331.0857,223.7822
545.71716,332.55582,223.86786
545.71716,334.14917,223.86786
546.57043,335.8831,223.7822
546.57043,337.4822,223.7822
545.71716,338.9292,223.86786
544.02893,340.2101,224.03735
560.1555,344.88574,222.41846
559.20135,346.3874,222.51422
557.3148,347.68463,222.70361
558.2545,349.5559,222.60928
557.3148,351.02847,222.70361
557.3148,352.70038,222.70361
556.3822,354.1555,222.79724
555.45667,355.59964,222.89014
554.538,357.03296,222.98236
555.45667,358.9183,222.89014
554.538,360.33917,222.98236
554.538,361.99225,222.98236
554.538,363.6454,222.98236
553.6263,365.04327,223.07388
553.6263,366.6902,223.07388
553.6263,368.33713,223.07388
553.6263,369.98407,223.07388
554.538,371.91092,222.98236
554.538,373.56403,222.98236
559.20135,376.71204,222.51422
559.20135,378.39673,222.51422
555.45667,378.83026,222.89014
555.45667,380.4896,222.89014
556.3822,382.47073,222.79724
556.3822,384.13632,222.79724
552.7213,384.47955,223.16473
551.82306,385.7898,223.25491
550.93146,387.09036,223.34442
548.2957,387.71338,223.60901
546.57043,388.65424,223.7822
544.02893,389.2492,224.03735
559.5154,292.47693,224.16025
557.6264,294.18317,224.33716
557.6264,295.8551,224.33716
555.7659,297.52304,224.51138
553.9332,299.16608,224.68301
552.12775,300.7847,224.85208
551.235,302.3994,224.9357
550.3488,304.0022,225.01868
550.3488,305.62488,225.01868
549.4692,307.20996,225.10107
547.72906,308.74054,225.26404
547.72906,310.3455,225.26404
546.86847,311.8962,225.3446
546.0141,313.4357,225.42462
546.0141,315.02902,225.42462
546.0141,316.62238,225.42462
546.0141,318.21573,225.42462
546.0141,319.80908,225.42462
546.0141,321.4024,225.42462
546.0141,322.99576,225.42462
546.0141,324.5891,225.42462
546.0141,326.18243,225.42462
546.0141,327.7758,225.42462
547.72906,329.6049,225.26404
547.72906,331.20984,225.26404
546.86847,332.6848,225.3446
560.4707,343.19458,224.07077
559.5154,344.7027,224.16025
558.56726,346.19934,224.24902
558.56726,347.87762,224.24902
558.56726,349.5559,224.24902
557.6264,351.02847,224.33716
558.56726,352.91248,224.24902
558.56726,354.5908,224.24902
557.6264,356.04422,224.33716
557.6264,357.71616,224.33716
554.8461,363.6454,224.5975
555.7659,365.5556,224.51138
555.7659,367.21497,224.51138
556.6926,369.1459,224.42459
557.6264,371.0915,224.33716
559.5154,373.34265,224.16025
561.4334,375.62845,223.98062
559.5154,380.08145,224.16025
559.5154,381.76614,224.16025
561.4334,384.11685,223.98062
558.56726,384.79993,224.24902
556.6926,385.80194,224.42459
556.6926,387.46753,224.42459
553.0271,387.76114,224.76785
551.235,388.71902,224.9357
548.59595,389.3242,225.18283
546.86847,390.25336,225.3446
558.88007,292.49417,225.8888
557.938,294.18317,225.97067
556.0752,295.8637,226.1326
554.2402,297.51913,226.29211
553.33295,299.15802,226.371
552.43243,300.7847,226.44928
551.5386,302.3994,226.52698
550.65125,304.0022,226.6041
549.7705,305.59323,226.68066
548.8962,307.17264,226.75668
548.0282,308.74054,226.83212
547.1665,310.29706,226.90704
547.1665,311.8962,226.90704
547.1665,313.49533,226.90704
547.1665,315.09445,226.90704
547.1665,316.69357,226.90704
547.1665,318.2927,226.90704
548.0282,319.9752,226.83212
548.0282,321.58014,226.83212
548.0282,323.1851,226.83212
549.7705,324.99393,226.68066
549.7705,326.61063,226.68066
553.33295,328.69238,226.371
554.2402,330.45773,226.29211
548.0282,331.20984,226.83212
558.88007,369.69537,225.8888
567.693,375.75082,225.12271
561.7498,382.4192,225.63931
554.2402,389.74722,226.29211
551.5386,390.3477,226.52698
548.8962,390.935,226.75668
558.24963,292.51126,227.60422
558.24963,294.18317,227.60422
555.46234,295.86798,227.82782
554.5471,297.51913,227.90125
553.63873,299.15802,227.97412
552.73706,300.7847,228.04645
550.9537,302.37952,228.18951
550.07184,303.9765,228.26028
549.1964,305.56183,228.3305
548.32733,307.1356,228.4002
549.1964,308.78345,228.3305
550.07184,310.4434,228.26028
548.32733,311.95044,228.4002
548.32733,313.5554,228.4002
548.32733,315.16034,228.4002
549.1964,316.83752,228.3305
550.07184,318.527,228.26028
550.07184,320.14374,228.26028
550.9537,321.85162,228.18951
550.9537,323.4743,228.18951
550.9537,325.097,228.18951
551.8421,326.82947,228.11826
552.73706,328.57483,228.04645
553.63873,330.3332,227.97412
553.63873,331.97397,227.97412
558.5612,294.18317,229.23776
556.6937,295.8637,229.37509
554.8541,297.51913,229.51038
553.9446,299.15802,229.57724
552.1456,300.77072,229.70953
551.2561,302.37952,229.77493
550.37317,303.9765,229.83987
551.2561,305.62488,229.77493
550.37317,307.20996,229.83987
550.37317,308.8267,229.83987
551.2561,310.4929,229.77493
550.37317,312.06012,229.83987
550.37317,313.67685,229.83987
549.4966,315.2267,229.90433
549.4966,316.83752,229.90433
550.37317,318.527,229.83987
550.37317,320.14374,229.83987
550.37317,321.76047,229.83987
550.37317,323.3772,229.83987
551.2561,325.097,229.77493
551.2561,326.71967,229.77493
551.2561,328.34235,229.77493
551.2561,329.965,229.77493
551.2561,331.58768,229.77493
551.2561,333.21036,229.77493
551.2561,334.83304,229.77493
557.003,295.8637,230.9963
555.1611,297.51913,231.11948
555.1611,299.16608,231.11948
554.25037,300.7988,231.18036
553.34644,302.41943,231.24081
552.4492,304.02808,231.30081
552.4492,305.65674,231.30081
551.55853,307.24756,231.36035
551.55853,308.8702,231.36035
550.6745,310.4434,231.4195
549.7968,312.0051,231.47818
548.9256,313.5554,231.53644
548.9256,315.16034,231.53644
549.7968,316.83752,231.47818
550.6745,318.527,231.4195
550.6745,320.14374,231.4195
550.6745,321.76047,231.4195
549.7968,323.2808,231.47818
549.7968,324.8916,231.47818
549.7968,326.5024,231.47818
549.7968,328.11322,231.47818
549.7968,329.72406,231.47818
549.7968,331.33487,231.47818
550.6745,333.07755,231.4195
549.7968,334.5565,231.47818
549.7968,336.1673,231.47818
549.7968,337.7781,231.47818
549.7968,339.38895,231.47818
548.9256,340.8395,231.53644
556.38666,297.5211,232.67328
555.468,299.16608,232.7286
555.468,300.813,232.7286
554.5562,302.4396,232.78351
553.6511,304.05414,232.83798
552.75275,305.65674,232.89209
551.861,307.24756,232.9458
551.861,308.8702,232.9458
550.9758,310.4434,232.99908
550.9758,312.06012,232.99908
550.9758,313.67685,232.99908
550.09705,315.2267,233.052
550.9758,316.9103,232.99908
550.9758,318.527,232.99908
550.9758,320.14374,232.99908
550.9758,321.76047,232.99908
550.09705,323.2808,233.052
549.22473,324.79004,233.10452
549.22473,326.395,233.10452
549.22473,327.99994,233.10452
549.22473,329.6049,233.10452
549.22473,331.20984,233.10452
549.22473,332.8148,233.10452
549.22473,334.41974,233.10452
549.22473,336.02466,233.10452
548.3587,337.4822,233.15668
549.22473,339.23456,233.10452
549.22473,340.8395,233.10452
549.22473,342.44446,233.10452
548.3587,343.87872,233.15668
549.22473,345.65436,233.10452
527.1399,377.5636,234.43433
525.7178,378.48154,234.51996
522.2428,378.58917,234.72919
522.2428,380.0127,234.72919
557.6215,299.18237,234.23877
555.77496,300.813,234.3377
555.77496,302.45993,234.3377
555.77496,304.10687,234.3377
553.9558,305.68884,234.43518
553.05634,307.28543,234.48337
552.16345,308.8702,234.53119
552.16345,310.4929,234.53119
552.16345,312.11557,234.53119
552.16345,313.73825,234.53119
552.16345,315.36093,234.53119
551.2771,316.9103,234.57867
551.2771,318.527,234.57867
551.2771,320.14374,234.57867
550.3973,321.66998,234.62582
549.5238,323.1851,234.6726
549.5238,324.79004,234.6726
549.5238,326.395,234.6726
549.5238,327.99994,234.6726
549.5238,329.6049,234.6726
549.5238,331.20984,234.6726
549.5238,332.8148,234.6726
548.65674,334.28397,234.71909
548.65674,335.8831,234.71909
548.65674,337.4822,234.71909
547.7959,338.9292,234.7652
547.7959,340.52255,234.7652
547.7959,342.1159,234.7652
547.7959,343.70923,234.7652
547.7959,345.30258,234.7652
547.7959,346.89594,234.7652
548.65674,348.6761,234.71909
547.7959,350.0826,234.7652
534.8229,366.76093,235.46024
534.8229,368.26712,235.46024
533.3003,369.2793,235.54181
531.7983,370.27786,235.62228
531.0548,371.51254,235.66211
530.3164,372.73898,235.70169
529.5829,373.9572,235.74097
528.1304,374.90817,235.81879
527.4114,376.10718,235.85733
525.9874,377.03467,235.9336
523.8863,377.6869,236.04617
522.5082,378.58917,236.12003
522.5082,380.0127,236.12003
557.00287,300.8273,235.9036
557.00287,302.4804,235.9036
556.0819,304.10687,235.94684
555.16785,305.7212,235.98975
554.2605,307.32358,236.03235
553.35986,308.9141,236.07465
553.35986,310.54276,236.07465
552.4659,312.11557,236.11664
552.4659,313.73825,236.11664
552.4659,315.36093,236.11664
551.5784,316.9103,236.1583
551.5784,318.527,236.1583
550.6975,320.05917,236.19965
549.82294,321.58014,236.24072
549.82294,323.1851,236.24072
549.82294,324.79004,236.24072
549.82294,326.395,236.24072
549.82294,327.99994,236.24072
549.82294,329.6049,236.24072
549.82294,331.20984,236.24072
549.82294,332.8148,236.24072
548.9548,334.28397,236.2815
548.9548,335.8831,236.2815
548.0929,337.33585,236.32196
547.2372,338.77817,236.36215
547.2372,340.36578,236.36215
547.2372,341.95337,236.36215
547.2372,343.541,236.36215
546.38763,344.95584,236.40204
546.38763,346.53775,236.40204
546.38763,348.11966,236.40204
546.38763,349.70157,236.40204
545.5441,351.08932,236.44165
546.38763,352.86536,236.40204
546.38763,354.44727,236.40204
546.38763,356.02917,236.40204
543.04956,359.87225,236.55878
540.60736,360.755,236.67346
539.0075,361.84406,236.74857
536.64905,362.69125,236.85931
537.42975,364.43988,236.82266
535.87366,365.48874,236.89572
533.5791,366.28732,237.00345
532.82465,367.54388,237.03888
532.07526,368.79193,237.0741
530.59143,369.78705,237.14374
530.59143,371.263,237.14374
529.85706,372.48618,237.17822
527.6828,373.19427,237.28033
526.9676,374.39496,237.3139
526.9676,375.84662,237.3139
525.5513,376.77277,237.3804
524.1533,377.6869,237.44604
522.77344,378.58917,237.51086
522.77344,380.0127,237.51086
557.311,304.1335,237.51874
557.311,305.78662,237.51874
557.311,307.43973,237.51874
556.3889,309.04764,237.55594
555.47363,310.6436,237.59286
553.66345,312.17145,237.66592
553.66345,313.8001,237.66592
552.7683,315.36093,237.70206
552.7683,316.9836,237.70206
551.87976,318.527,237.73792
551.87976,320.14374,237.73792
550.99774,321.66998,237.7735
550.99774,323.2808,237.7735
550.99774,324.8916,237.7735
550.1221,326.395,237.8088
550.1221,327.99994,237.8088
550.1221,329.6049,237.8088
550.1221,331.20984,237.8088
550.1221,332.8148,237.8088
549.2528,334.28397,237.8439
549.2528,335.8831,237.8439
548.38983,337.33585,237.87872
547.5331,338.77817,237.9133
546.68243,340.2101,237.94763
546.68243,341.79202,237.94763
546.68243,343.37393,237.94763
545.83795,344.78433,237.98169
545.83795,346.36057,237.98169
544.99945,347.7553,238.01553
544.99945,349.32593,238.01553
544.1669,350.70517,238.04913
544.1669,352.27023,238.04913
545.83795,354.24182,237.98169
545.83795,355.81808,237.98169
544.1669,356.9654,238.04913
543.3402,358.31274,238.08249
540.89496,359.21185,238.18115
539.2931,360.31165,238.24579
537.7134,361.39624,238.30954
536.9317,362.69125,238.34106
536.15533,363.97736,238.3724
533.10254,364.562,238.4956
532.3522,365.82013,238.52588
532.3522,367.30603,238.52588
530.8666,368.3111,238.58582
530.1312,369.54413,238.61548
528.67505,370.52435,238.67426
528.67505,371.98563,238.67426
527.9542,373.19427,238.70334
527.23816,374.39496,238.73224
526.52673,375.58777,238.76093
525.1179,376.5126,238.81778
524.42035,377.6869,238.84595
523.03876,378.58917,238.90167
522.3546,379.74542,238.92929
556.69586,307.40073,239.16507
557.6191,309.09283,239.13391
556.69586,310.69458,239.16507
556.69586,312.34152,239.16507
555.7794,313.9252,239.19601
553.967,315.42877,239.2572
553.967,317.05743,239.2572
553.07074,318.60626,239.28748
553.07074,320.22894,239.28748
553.967,321.94345,239.2572
553.07074,323.4743,239.28748
552.1811,324.99393,239.3175
551.298,326.5024,239.34732
550.4212,327.99994,239.37692
550.4212,329.6049,239.37692
550.4212,331.20984,239.37692
550.4212,332.8148,239.37692
549.55084,334.28397,239.40631
549.55084,335.8831,239.40631
548.6868,337.33585,239.43549
547.829,338.77817,239.46445
546.9773,340.2101,239.4932
546.9773,341.79202,239.4932
546.1317,343.20807,239.52176
545.2922,344.61404,239.55011
545.2922,346.1847,239.55011
544.45856,347.57507,239.57825
543.63086,348.95563,239.6062
543.63086,350.51514,239.6062
543.63086,352.07465,239.6062
542.809,353.4345,239.63394
541.9929,354.78476,239.6615
541.9929,356.3333,239.6615
540.3778,357.45703,239.71603
539.57874,358.77924,239.74301
537.21436,359.65808,239.82285
536.437,360.9546,239.84909
535.66504,362.24225,239.87515
534.1368,363.29535,239.92676
533.3804,364.562,239.9523
531.8829,365.5889,240.00287
531.14166,366.83514,240.0279
531.14166,368.3111,240.0279
530.4054,369.54413,240.05273
528.94745,370.52435,240.10199
528.2257,371.73782,240.12634
528.2257,373.19427,240.12634
527.5087,374.39496,240.15054
526.08887,375.33063,240.19849
525.38586,376.5126,240.22223
524.68744,377.6869,240.24582
523.3041,378.58917,240.29251
522.61914,379.74542,240.31564
559.797,310.84985,240.69821
559.797,312.51544,240.69821
558.8586,314.11636,240.72372
557.9272,315.70526,240.74905
557.9272,317.35837,240.74905
557.0028,318.92923,240.77417
555.1745,320.40128,240.82391
554.2705,321.94345,240.84848
554.2705,323.57214,240.84848
554.2705,325.2008,240.84848
553.37317,326.71967,240.8729
552.4824,328.22736,240.8971
551.5982,329.72406,240.92114
551.5982,331.33487,240.92114
550.72034,332.8148,240.94504
550.72034,334.41974,240.94504
549.8489,335.8831,240.96872
549.8489,337.4822,240.96872
548.1249,338.77817,241.0156
547.27216,340.2101,241.03879
547.27216,341.79202,241.03879
546.4255,343.20807,241.06183
546.4255,344.78433,241.06183
544.75024,346.01,241.10736
544.75024,347.57507,241.10736
543.9215,348.95563,241.12991
543.09863,350.32645,241.15228
543.09863,351.8805,241.15228
543.09863,353.4345,241.15228
541.47015,354.58246,241.19656
540.6644,355.91928,241.21848
539.8643,357.24683,241.24023
537.497,358.14148,241.30463
536.71875,359.4432,241.32578
535.9458,360.73602,241.3468
534.4156,361.79935,241.3884
534.4156,363.29535,241.3884
533.65826,364.562,241.409
532.1589,365.5889,241.44977
531.41675,366.83514,241.46997
530.67957,368.0731,241.48999
530.67957,369.54413,241.48999
529.94727,370.76892,241.50992
528.49713,371.73782,241.54935
528.49713,373.19427,241.54935
527.7793,374.39496,241.56888
526.3576,375.33063,241.60754
525.65375,376.5126,241.62668
524.95447,377.6869,241.64569
524.95447,379.11966,241.64569
523.5694,380.0127,241.68335
559.16785,315.7757,242.34494
558.2353,317.35837,242.3642
558.2353,319.01147,242.3642
557.30975,320.57617,242.3833
557.30975,322.22308,242.3833
556.39105,323.77,242.40225
554.5741,325.2008,242.43976
553.6756,326.71967,242.45831
553.6756,328.34235,242.45831
552.78375,329.8441,242.47672
551.89844,331.33487,242.495
551.89844,332.94568,242.495
551.0195,334.41974,242.51312
550.147,335.8831,242.53113
550.147,337.4822,242.53113
548.4208,338.77817,242.56677
547.56696,340.2101,242.58438
547.56696,341.79202,242.58438
546.7193,343.20807,242.60187
545.8776,344.61404,242.61926
544.21216,345.8366,242.65363
545.04193,347.57507,242.6365
544.21216,348.95563,242.65363
543.3883,350.32645,242.67062
542.5701,351.68765,242.6875
541.75775,353.0393,242.70428
540.95105,354.38153,242.72092
539.3544,355.511,242.75388
538.56433,356.83078,242.77017
537.77966,358.14148,242.78638
537.0004,359.4432,242.80246
535.4579,360.51895,242.83429
534.6944,361.79935,242.85004
533.93616,363.07108,242.86572
533.183,364.33423,242.88126
531.69183,365.3592,242.91202
531.69183,366.83514,242.91202
530.95374,368.0731,242.92725
530.22046,369.3028,242.94238
529.4921,370.52435,242.95743
528.7686,371.73782,242.97235
528.7686,373.19427,242.97235
528.04987,374.39496,242.98718
526.6264,375.33063,243.01657
526.6264,376.77277,243.01657
525.92163,377.95004,243.0311
525.92163,379.38748,243.0311
524.5259,380.28168,243.0599
559.4771,319.09436,243.96619
559.4771,320.7537,243.96619
558.5434,322.3177,243.97934
558.5434,323.9708,243.97934
557.6167,325.51694,243.99243
555.7839,326.94012,244.01825
554.8776,331.71548,244.03104
553.978,333.21036,244.04373
553.978,334.83304,244.04373
552.1986,336.1673,244.06882
551.3186,337.62964,244.08124
551.3186,339.23456,244.08124
550.445,340.68045,244.09354
548.7167,341.95337,244.11792
548.7167,343.541,244.11792
547.8618,344.95584,244.12997
546.17035,346.1847,244.15381
546.17035,347.7553,244.15381
545.3336,349.14014,244.16562
544.50287,350.51514,244.17734
543.6779,351.8805,244.18896
542.0454,353.0393,244.21198
541.2377,354.38153,244.22336
539.639,355.511,244.24591
538.84796,356.83078,244.25708
538.0623,358.14148,244.26816
538.0623,359.65808,244.26816
536.50726,360.73602,244.29007
535.7376,362.02002,244.30093
534.97327,363.29535,244.3117
533.45996,364.33423,244.33304
532.71094,365.5889,244.3436
532.71094,367.06982,244.3436
531.9669,368.3111,244.3541
531.9669,369.78705,244.3541
530.4938,370.76892,244.37488
529.7645,371.98563,244.38513
529.7645,373.4469,244.38513
529.7645,374.90817,244.38513
529.04004,376.10718,244.39536
528.32043,377.29828,244.40552
528.32043,378.7499,244.40552
526.8952,379.65707,244.4256
526.8952,381.0992,244.4256
559.7864,322.41302,245.5874
558.8515,323.9708,245.59451
558.8515,325.6239,245.59451
555.18115,334.97284,245.62231
554.28046,336.45572,245.62915
552.49884,337.7781,245.64264
552.49884,339.38895,245.64264
551.61774,340.8395,245.64932
550.74304,342.27957,245.65594
549.8747,343.70923,245.66254
549.0126,345.12857,245.66907
549.0126,346.7162,245.66907
547.3068,347.93683,245.682
545.6253,349.14014,245.69473
544.7935,350.51514,245.70105
543.9676,351.8805,245.7073
542.333,353.0393,245.7197
541.52423,354.38153,245.72583
539.92365,355.511,245.73795
539.1316,356.83078,245.74396
538.345,358.14148,245.74991
538.345,359.65808,245.74991
536.0174,360.51895,245.76755
535.2521,361.79935,245.77335
535.2521,363.29535,245.77335
535.2521,364.79132,245.77335
534.49194,366.05295,245.77911
532.98694,367.06982,245.79053
532.98694,368.55072,245.79053
532.98694,370.03162,245.79053
531.5021,371.01514,245.80176
531.5021,372.48618,245.80176
530.767,373.7012,245.80734
530.03687,374.90817,245.81287
530.03687,376.36945,245.81287
529.3115,377.5636,245.81836
528.59094,378.7499,245.82382
555.48474,336.6015,247.2136
555.48474,341.48752,247.2136
551.0411,342.27957,247.21835
551.0411,343.87872,247.21835
549.3085,345.12857,247.22021
550.17163,346.89594,247.2193
547.60065,347.93683,247.22205
546.75586,349.32593,247.22296
545.91705,350.70517,247.22388
542.6206,351.4962,247.22739
542.6206,353.0393,247.22739
542.6206,354.58246,247.22739
541.81085,355.91928,247.22827
540.20825,357.0381,247.22998
539.4152,358.3526,247.23083
538.6277,359.65808,247.23169
537.8455,360.9546,247.23251
537.0687,362.24225,247.23334
535.5309,363.29535,247.23499
536.2972,365.02222,247.23419
535.5309,366.28732,247.23499
534.7698,367.54388,247.23581
534.01385,368.79193,247.23663
533.26294,370.03162,247.23743
532.5171,371.263,247.23822
532.5171,372.73898,247.23822
547.8944,347.93683,248.76212
547.8944,349.51306,248.76212
545.3748,352.07465,248.74847
544.5469,353.4345,248.74399
543.7246,354.78476,248.73953
542.9082,356.12558,248.7351
542.9082,357.66873,248.7351
541.29236,358.77924,248.72635
540.49286,360.0923,248.72202
540.49286,361.6194,248.72202
539.69885,362.9181,248.71771
538.91034,364.20782,248.71344
537.3494,365.2547,248.70499
535.04767,366.05295,248.6925
535.8097,367.78333,248.69666
545.6655,358.31274,250.27219
542.3841,360.53253,250.23315
543.1958,362.29813,250.2428
541.578,363.37646,250.22357
567.07086,358.8211,283.45288
566.20074,360.71616,283.8737
566.76044,348.82748,281.82553
565.8891,350.68463,282.24014
565.8891,352.35654,282.24014
565.0111,354.2342,282.65796
566.76044,355.4899,281.82553
566.76044,357.1555,281.82553
566.76044,358.8211,281.82553
566.76044,360.4867,281.82553
566.76044,362.15228,281.82553
567.316,342.00632,279.7928
567.316,343.66565,279.7928
567.316,345.32498,279.7928
568.1754,346.80807,279.39044
567.316,348.64365,279.7928
567.316,350.30298,279.7928
566.45,352.1587,280.19818
567.316,353.62164,279.7928
567.316,355.28098,279.7928
566.45,357.1555,280.19818
566.45,358.8211,280.19818
566.45,360.4867,280.19818
566.45,362.15228,280.19818
564.6983,364.30392,281.0182
563.81244,366.23444,281.43292
569.56934,321.8476,276.9916
570.4109,323.40128,276.60413
571.2462,324.94345,276.2195
572.0754,326.4743,275.83774
570.4109,336.47897,276.60413
570.4109,338.11368,276.60413
569.56934,339.89636,276.9916
569.56934,341.53717,276.9916
568.7215,343.33932,277.382
568.7215,344.98627,277.382
569.56934,346.45956,276.9916
568.7215,348.28012,277.382
568.7215,349.92703,277.382
568.7215,351.57397,277.382
567.8673,353.42053,277.77527
567.8673,355.0736,277.77527
567.0067,356.9403,278.17154
567.0067,358.59964,278.17154
567.0067,360.25897,278.17154
566.1396,362.15228,278.5708
566.1396,363.8179,278.5708
563.4984,366.23444,279.7869
562.6045,368.17975,280.1985
559.8812,370.68457,281.4524
569.26355,318.56598,275.3885
570.1062,320.13184,275.00696
570.9426,321.68613,274.62823
571.77295,323.22894,274.25232
572.5971,324.76047,273.87915
573.4153,326.2808,273.50873
575.8343,327.5891,272.41348
570.1062,333.20953,275.00696
570.1062,334.84427,275.00696
571.77295,336.21036,274.25232
570.9426,337.97284,274.62823
570.9426,339.6015,274.62823
570.9426,341.2302,274.62823
570.1062,343.01782,275.00696
570.1062,344.65253,275.00696
569.26355,346.45956,275.3885
569.26355,348.10037,275.3885
569.26355,349.74118,275.3885
569.26355,351.38196,275.3885
569.26355,353.02277,275.3885
568.41455,354.86783,275.7729
568.41455,356.51477,275.7729
567.5592,358.37985,276.16013
566.69745,360.25897,276.5503
566.69745,361.9183,276.5503
565.82916,363.8179,276.94345
564.9543,365.7319,277.33954
563.18445,367.91913,278.14087
561.3873,370.14005,278.95453
559.5623,372.39545,279.78082
557.70874,374.68616,280.62006
568.1076,313.69458,274.16376
569.8015,315.2277,273.4098
569.8015,316.86243,273.4098
570.6391,318.42877,273.03696
570.6391,320.05743,273.03696
572.2958,321.527,272.29956
572.2958,323.14374,272.29956
574.7358,324.49097,271.2135
575.53735,325.99576,270.85672
575.53735,327.5891,270.85672
576.3331,329.07733,270.5025
574.7358,330.88745,271.2135
571.4705,332.965,272.6669
572.2958,334.46082,272.29956
572.2958,336.07755,272.29956
572.2958,337.69424,272.29956
572.2958,339.31097,272.29956
570.6391,341.2302,273.03696
570.6391,342.85886,273.03696
569.8015,344.65253,273.4098
569.8015,346.28726,273.4098
568.9577,348.10037,273.78537
568.9577,349.74118,273.78537
568.1076,351.57397,274.16376
568.1076,353.22092,274.16376
568.1076,354.86783,274.16376
567.2511,356.72675,274.54498
567.2511,358.37985,274.54498
566.3882,360.25897,274.92908
566.3882,361.9183,274.92908
565.5187,363.8179,275.3161
564.64264,365.7319,275.70602
563.7599,367.6605,276.09894
561.9741,369.8709,276.8938
560.1607,372.1155,277.70096
558.31903,374.3951,278.5207
555.5021,377.01297,279.77457
554.5482,379.06256,280.19913
567.80066,310.40073,272.55463
568.6519,312.0028,272.18225
568.6519,313.6436,272.18225
569.4968,315.2277,271.8126
570.3355,316.8001,271.44568
571.1681,318.36093,271.08148
571.99445,319.9103,270.71997
572.8148,321.44833,270.36105
573.6293,322.9752,270.0048
575.24036,324.4024,269.29996
576.03723,325.90213,268.95135
576.82837,327.39105,268.60526
577.6139,328.86932,268.26163
576.03723,330.66492,268.95135
573.6293,332.6049,270.0048
571.99445,334.46082,270.71997
571.99445,336.07755,270.71997
571.99445,337.69424,270.71997
571.99445,339.31097,270.71997
570.3355,341.2302,271.44568
570.3355,342.85886,271.44568
569.4968,344.65253,271.8126
569.4968,346.28726,271.8126
568.6519,348.10037,272.18225
567.80066,349.92703,272.55463
566.943,351.7674,272.9298
566.943,353.42053,272.9298
566.943,355.0736,272.9298
566.0789,356.9403,273.30786
566.0789,358.59964,273.30786
566.0789,360.25897,273.30786
565.20825,362.15228,273.68872
564.33105,364.06,274.07248
564.33105,365.7319,274.07248
563.44714,367.6605,274.45917
562.55646,369.60382,274.84882
561.65894,371.56207,275.24146
559.8431,373.81976,276.03583
557.06604,376.4104,277.25073
555.17816,378.75082,278.0766
568.34607,308.7212,270.5791
568.34607,310.362,270.5791
569.19214,311.95828,270.2154
570.032,313.54276,269.85443
571.6931,315.06012,269.14035
572.51465,316.6159,268.78723
573.33014,318.16034,268.43668
574.9434,319.62238,267.7432
575.74133,321.1393,267.4002
576.53357,322.64532,267.05966
577.32007,324.1406,266.72156
578.101,325.62518,266.38586
578.101,327.19583,266.38586
578.101,328.76645,266.38586
578.101,330.3371,266.38586
575.74133,332.25253,267.4002
572.51465,334.33487,268.78723
572.51465,335.94568,268.78723
571.6931,337.69424,269.14035
571.6931,339.31097,269.14035
570.86566,341.07837,269.49606
570.032,342.85886,269.85443
569.19214,344.65253,270.2154
568.34607,346.45956,270.5791
568.34607,348.10037,270.5791
565.76965,350.30298,271.6866
565.76965,351.9623,271.6866
565.76965,353.62164,271.6866
565.76965,355.28098,271.6866
565.76965,356.9403,271.6866
564.8978,358.8211,272.06137
564.0194,360.71616,272.43896
563.13434,362.62564,272.81943
563.13434,364.30392,272.81943
563.13434,365.9822,272.81943
563.13434,367.6605,272.81943
562.24243,369.60382,273.2028
560.4381,371.83774,273.97842
559.52545,373.81976,274.37073
557.67883,376.1126,275.16452
555.80316,378.44153,275.97076
553.8978,380.80728,276.7898
550.9826,383.5442,278.04294
568.8875,307.05414,268.61823
570.56323,308.62488,267.91064
571.39185,310.20996,267.56073
572.2144,311.78345,267.21338
573.8417,313.29706,266.52625
574.6464,314.84235,266.18643
574.6464,316.4357,266.18643
574.6464,318.02902,266.18643
575.44543,319.5517,265.84903
577.0263,320.9881,265.18152
577.8083,322.48395,264.85132
578.5847,323.96915,264.52344
578.5847,325.5342,264.52344
578.5847,327.09924,264.52344
578.5847,328.6643,264.52344
577.8083,330.3371,264.85132
577.8083,331.9077,264.85132
574.6464,333.96246,266.18643
571.39185,336.07755,267.56073
571.39185,337.69424,267.56073
572.2144,339.1673,267.21338
570.56323,341.07837,267.91064
569.72845,342.85886,268.26312
568.0403,344.8188,268.97598
568.0403,346.45956,268.97598
567.1867,348.28012,269.3364
565.4604,350.30298,270.06537
564.5874,352.1587,270.43402
564.5874,353.82428,270.43402
564.5874,355.4899,270.43402
563.7078,357.3723,270.80542
561.92847,359.4956,271.55676
561.92847,361.18033,271.55676
561.92847,362.86502,271.55676
561.0285,364.79742,271.9368
561.0285,366.4886,271.9368
561.0285,368.17975,271.9368
561.0285,369.8709,271.9368
559.2078,372.1155,272.70563
558.28687,374.10632,273.09448
557.3587,376.1126,273.48642
555.4805,378.44153,274.27948
553.5727,380.80728,275.0851
551.63434,383.21082,275.90363
549.6648,385.653,276.7353
568.5828,302.15,267.02106
569.42487,303.77072,266.67184
571.0905,305.3598,265.98114
571.9142,306.95102,265.6396
572.7319,308.53064,265.30048
573.54364,310.09882,264.96387
574.3495,311.65567,264.62967
575.14954,313.20126,264.29788
575.9439,314.7358,263.9685
576.73254,316.25934,263.64145
576.73254,317.8356,263.64145
577.51556,319.34268,263.31674
578.293,320.83905,262.99432
578.293,322.40408,262.99432
579.065,323.88434,262.6742
579.065,325.44385,262.6742
579.065,327.00336,262.6742
579.065,328.5629,262.6742
578.293,330.22937,262.99432
577.51556,331.9077,263.31674
575.14954,333.84015,264.29788
571.9142,335.94568,265.6396
571.0905,337.69424,265.98114
571.0905,339.31097,265.98114
568.5828,341.38312,267.02106
568.5828,343.01782,267.02106
566.87976,344.98627,267.7273
566.0187,346.80807,268.08435
565.1511,348.64365,268.44415
564.277,350.49307,268.80664
564.277,352.1587,268.80664
563.3962,354.02847,269.17188
561.61444,356.12622,269.91077
558.89014,358.48157,271.0405
557.96796,360.41943,271.4229
560.7133,361.41507,270.28445
557.96796,363.84116,271.4229
557.96796,365.552,271.4229
558.89014,367.00278,271.0405
558.89014,368.70703,271.0405
557.96796,370.68457,271.4229
557.96796,372.39545,271.4229
557.0386,374.3951,271.80832
555.15796,376.7105,272.58823
555.15796,378.44153,272.58823
554.2065,380.48865,272.9828
551.3066,383.21082,274.18536
549.3344,385.653,275.00317
569.12134,298.8847,265.08057
569.12134,300.5134,265.08057
570.7892,302.12634,264.40155
571.61395,303.72937,264.06573
573.24554,305.30145,263.40143
574.0525,306.8756,263.0729
574.0525,308.46896,263.0729
574.85364,310.02606,262.74673
574.85364,311.61368,262.74673
575.64905,313.1539,262.4229
577.2228,314.63077,261.78217
577.2228,316.20142,261.78217
578.00134,317.70892,261.4652
578.7743,319.20578,261.15048
578.7743,320.7653,261.15048
579.5419,322.2461,260.838
579.5419,323.8001,260.838
578.7743,325.44385,261.15048
578.7743,327.00336,261.15048
578.00134,328.6643,261.4652
578.00134,330.22937,261.4652
576.4387,332.02185,262.10138
575.64905,333.7187,262.4229
571.61395,335.94568,264.06573
569.12134,337.97284,265.08057
568.27814,339.7484,265.4239
566.5728,341.69238,266.11816
566.5728,343.33932,266.11816
565.7106,345.15497,266.4692
563.96655,347.16187,267.1793
563.0846,349.0127,267.53836
563.0846,350.68463,267.53836
563.0846,352.35654,267.53836
552.9223,363.36005,271.67578
553.88257,364.84805,271.28482
553.88257,366.5859,271.28482
554.8353,368.05542,270.89694
555.7806,369.51343,270.5121
555.7806,371.23767,270.5121
555.7806,372.9619,270.5121
554.8353,374.9795,270.89694
554.8353,376.7105,270.89694
553.88257,378.75082,271.28482
552.9223,380.80728,271.67578
569.6559,298.88882,263.1544
569.6559,300.5115,263.1544
572.1336,302.11084,262.16428
572.9475,303.70233,261.83902
573.75555,305.2823,261.51614
575.3542,306.82626,260.87732
576.14496,308.3781,260.56134
576.14496,309.95435,260.56134
576.93005,311.4895,260.2476
578.48364,312.9677,259.62677
578.48364,314.52722,259.62677
578.48364,316.08676,259.62677
578.48364,317.64627,259.62677
579.2522,319.13806,259.31967
578.48364,320.7653,259.62677
578.48364,322.32483,259.62677
578.48364,323.88434,259.62677
577.70966,325.5342,259.93607
576.93005,327.19583,260.2476
576.14496,328.86932,260.56134
575.3542,330.55487,260.87732
574.55774,332.25253,261.1956
573.75555,333.96246,261.51614
571.3137,335.94568,262.4919
567.1228,338.25558,264.1666
565.40247,340.19565,264.85406
564.5326,342.00632,265.20166
563.65607,343.8307,265.55194
562.77295,345.66885,265.90482
560.0829,347.88574,266.97977
560.0829,349.5769,266.97977
560.0829,351.26807,266.97977
550.651,367.383,270.7488
550.651,369.14163,270.7488
551.6279,370.6185,270.35843
551.6279,372.37018,270.35843
551.6279,374.12183,270.35843
551.6279,375.87347,270.35843
551.6279,377.62512,270.35843
584.4841,371.7576,257.229
583.75214,373.5272,257.52148
583.75214,375.049,257.52148
583.75214,376.57083,257.52148
587.3621,376.7673,256.07892
588.0694,377.99854,255.79626
585.9329,381.81067,256.65002
586.64996,383.0331,256.3635
588.772,383.6792,255.51553
590.163,384.5947,254.95966
590.163,386.07065,254.95966
570.1865,297.27618,261.24234
571.0135,298.89694,260.9181
571.8345,300.50592,260.5962
573.45856,302.09558,259.95938
575.0594,303.66245,259.33173
576.6373,305.20697,258.713
576.6373,306.77762,258.713
576.6373,308.34824,258.713
577.4179,309.88367,258.40695
578.9626,311.36798,257.80133
579.72675,312.8766,257.50168
579.72675,314.42514,257.50168
579.72675,315.9737,257.50168
579.72675,317.52228,257.50168
578.9626,319.13806,257.80133
579.72675,320.6194,257.50168
578.193,322.32483,258.10306
577.4179,323.96915,258.40695
577.4179,325.5342,258.40695
575.8512,327.2931,259.02127
575.0594,328.97296,259.33173
573.45856,330.7758,259.95938
573.45856,332.36914,259.95938
572.6495,334.0857,260.2766
567.66876,336.47897,262.2295
564.2233,338.68765,263.58044
563.34564,340.49948,263.92456
563.34564,342.16507,263.92456
549.3371,371.18433,269.41718
549.3371,372.95,269.41718
551.30145,375.87347,268.64697
589.19385,367.10797,253.78973
589.19385,368.5889,253.78973
587.79156,370.54388,254.33957
587.08325,372.2793,254.61728
585.65216,374.27957,255.1784
586.3702,375.52765,254.89688
587.79156,376.5076,254.33957
587.79156,377.99854,254.33957
589.19385,378.9553,253.78973
589.88794,380.16684,253.51761
588.49506,382.1933,254.06372
589.88794,383.11874,253.51761
590.5774,384.31238,253.24728
591.94257,385.21454,252.71198
571.53534,297.29602,259.02808
572.35144,298.90494,258.7142
573.1616,300.50226,258.40262
574.7645,302.08054,257.78613
576.3446,303.63635,257.17844
577.90234,305.17014,256.57935
578.6729,306.70593,256.283
578.6729,308.25995,256.283
578.6729,309.81396,256.283
579.4381,311.32803,255.98868
580.9525,312.78674,255.40625
580.9525,314.3245,255.40625
