# CLOUD_0
580.61926,353.2875,-31.835205
580.36163,354.25464,-32.150208
580.10535,355.21698,-32.463684
580.10535,356.3144,-32.463684
580.36163,357.55515,-32.150208
580.10535,358.50925,-32.463684
579.8503,359.45862,-32.775574
579.8503,360.5533,-32.775574
579.8503,361.648,-32.775574
579.8503,362.7427,-32.775574
579.8503,363.8374,-32.775574
603.3963,259.69586,-1.8504639
600.737,261.87573,-5.147278
599.2672,263.64334,-6.9694824
598.5454,265.16418,-7.864319
597.4786,266.76495,-9.186951
597.1271,268.1524,-9.622681
596.7777,269.53177,-10.055847
596.4303,270.9031,-10.486511
596.08496,272.26648,-10.914612
596.08496,273.5454,-10.914612
596.08496,274.82437,-10.914612
596.08496,276.1033,-10.914612
595.74164,277.4477,-11.340332
595.74164,278.72293,-11.340332
596.08496,279.94012,-10.914612
596.08496,281.21906,-10.914612
596.08496,282.498,-10.914612
596.4303,283.72974,-10.486511
597.1271,284.92462,-9.622681
597.8321,286.13364,-8.748718
598.5454,287.35693,-7.864319
599.63135,288.56073,-6.5180054
599.99774,289.84756,-6.063843
599.99774,291.16867,-6.063843
599.99774,292.48978,-6.063843
599.99774,293.81088,-6.063843
599.99774,295.132,-6.063843
599.63135,296.4637,-6.5180054
599.2672,297.78748,-6.9694824
598.1877,299.10867,-8.3078
597.4786,300.40787,-9.186951
596.4303,301.68698,-10.486511
594.05426,302.91034,-13.432251
593.0647,304.13205,-14.658997
592.09186,305.3332,-15.865112
591.1352,306.51428,-17.051147
590.1944,307.67584,-18.21753
589.57574,308.84253,-18.984436
588.66046,309.9693,-20.11914
587.76,311.0778,-21.235535
587.4631,312.234,-21.603638
586.87396,313.34818,-22.333923
586.29114,314.4505,-23.056458
586.0021,315.5824,-23.414856
585.71454,316.7083,-23.771362
585.144,317.78128,-24.478699
584.86096,318.89255,-24.82959
584.5794,319.998,-25.17865
584.2993,321.09763,-25.525879
584.0207,322.19153,-25.871338
583.4678,323.2194,-26.556763
583.1935,324.29935,-26.89685
582.9206,325.37372,-27.235168
582.9206,326.51077,-27.235168
582.379,327.5059,-27.906555
582.1103,328.5638,-28.239685
581.84296,329.6163,-28.571106
581.84296,330.74176,-28.571106
581.57697,331.78604,-28.900879
581.3124,332.825,-29.228943
581.3124,333.94473,-29.228943
581.3124,335.06445,-29.228943
581.0491,336.09247,-29.555359
580.7872,337.11533,-29.880066
580.7872,338.22937,-29.880066
580.7872,339.34344,-29.880066
580.5265,340.3555,-30.203186
580.2672,341.3625,-30.524658
580.2672,342.47095,-30.524658
580.2672,343.5794,-30.524658
580.00916,344.57574,-30.844543
580.00916,345.68143,-30.844543
580.00916,346.7871,-30.844543
580.00916,347.8928,-30.844543
580.00916,348.99847,-30.844543
579.75244,349.97876,-31.162842
579.75244,351.08167,-31.162842
579.497,352.05432,-31.479553
579.497,353.15448,-31.479553
579.497,354.25464,-31.479553
579.24286,355.21698,-31.794617
579.24286,356.3144,-31.794617
579.24286,357.41183,-31.794617
579.24286,358.50925,-31.794617
578.9899,359.45862,-32.108154
578.7383,360.4033,-32.420166
578.7383,361.49527,-32.420166
578.7383,362.58725,-32.420166
578.7383,363.67923,-32.420166
599.69244,260.54663,-4.337036
598.9594,262.10428,-5.258423
597.5194,263.8587,-7.0684814
596.81213,265.36932,-7.9575195
595.76666,266.95895,-9.271606
595.42224,268.3378,-9.704529
595.07983,269.70862,-10.134949
594.7394,271.0715,-10.562866
594.4009,272.4265,-10.988342
594.4009,273.69806,-10.988342
594.4009,274.96964,-10.988342
594.06433,276.30954,-11.411377
594.06433,277.57745,-11.411377
593.72974,278.90604,-11.831909
594.06433,280.11325,-11.411377
594.4009,281.32742,-10.988342
594.4009,282.599,-10.988342
594.7394,283.82388,-10.562866
595.07983,285.05588,-10.134949
596.1131,286.2148,-8.836121
596.81213,287.4314,-7.9575195
597.5194,288.66238,-7.0684814
598.2351,289.90805,-6.1688843
598.2351,291.2213,-6.1688843
598.2351,292.53455,-6.1688843
598.2351,293.84778,-6.1688843
597.87616,295.17538,-6.619995
597.5194,296.49512,-7.0684814
597.16473,297.8071,-7.5143433
596.1131,299.11652,-8.836121
595.42224,300.40433,-9.704529
594.4009,301.67236,-10.988342
592.73737,302.90207,-13.079346
591.7618,304.1204,-14.305603
591.1205,305.3332,-15.111694
590.17194,306.51428,-16.303955
589.23914,307.67584,-17.476501
588.62573,308.84253,-18.247498
587.7182,309.9693,-19.388245
586.8253,311.0778,-20.51056
586.53094,312.234,-20.880615
585.94684,313.34818,-21.614807
585.6571,314.48907,-21.978943
585.08234,315.5824,-22.701477
584.7972,316.7083,-23.059814
584.2315,317.78128,-23.770935
584.2315,318.94232,-23.770935
583.6717,319.998,-24.474548
583.394,321.09763,-24.82367
583.11774,322.19153,-25.170898
582.8429,323.2798,-25.516357
582.2975,324.29935,-26.201843
582.0269,325.37372,-26.541992
582.0269,326.51077,-26.541992
581.75775,327.5767,-26.88031
581.2235,328.5638,-27.551819
581.2235,329.69214,-27.551819
580.95844,330.74176,-27.88501
580.6947,331.78604,-28.216492
580.4324,332.825,-28.546326
580.4324,333.94473,-28.546326
580.4324,335.06445,-28.546326
580.17126,336.09247,-28.87445
579.91156,337.11533,-29.200928
579.91156,338.22937,-29.200928
579.91156,339.34344,-29.200928
579.65314,340.3555,-29.525757
579.396,341.3625,-29.848938
579.396,342.47095,-29.848938
579.396,343.5794,-29.848938
579.1402,344.57574,-30.170532
579.1402,345.68143,-30.170532
579.1402,346.7871,-30.170532
578.8856,347.77295,-30.490479
578.8856,348.87585,-30.490479
578.8856,349.97876,-30.490479
578.8856,351.08167,-30.490479
578.6323,352.05432,-30.808838
578.6323,353.15448,-30.808838
578.6323,354.25464,-30.808838
578.6323,355.3548,-30.808838
578.3803,356.3144,-31.12561
578.1296,357.26923,-31.440796
578.1296,358.36392,-31.440796
578.1296,359.45862,-31.440796
577.88,360.4033,-31.754456
577.88,361.49527,-31.754456
577.88,362.58725,-31.754456
577.3847,363.36523,-32.377136
597.9211,260.78317,-4.453064
596.84717,262.44202,-5.8217773
595.7921,264.07156,-7.166382
594.7556,265.67255,-8.487366
594.4141,267.0551,-8.922607
593.7371,268.52103,-9.785461
593.40155,269.8834,-10.213135
593.40155,271.15497,-10.213135
593.0679,272.50583,-10.638428
593.0679,273.77374,-10.638428
592.73615,275.11322,-11.061218
592.73615,276.3775,-11.061218
592.73615,277.64175,-11.061218
592.40625,278.96637,-11.481567
592.0783,280.2834,-11.899536
592.73615,281.43454,-11.061218
593.0679,282.64905,-10.638428
593.40155,283.87054,-10.213135
593.40155,285.1421,-10.213135
594.07465,286.3348,-9.355286
594.7556,287.54144,-8.487366
595.44464,288.76224,-7.609253
596.1417,289.99747,-6.720825
596.4934,291.27332,-6.272644
596.4934,292.57877,-6.272644
596.1417,293.90228,-6.720825
595.7921,295.21802,-7.166382
595.44464,296.526,-7.609253
595.0991,297.82635,-8.049622
594.4141,299.12164,-8.922607
593.7371,300.40198,-9.785461
592.73615,301.66278,-11.061218
591.428,302.89383,-12.728394
590.785,304.1204,-13.547913
590.1492,305.3332,-14.358215
589.52045,306.53244,-15.159485
588.59045,307.69708,-16.344788
587.6757,308.84253,-17.51062
586.77594,309.9693,-18.657349
586.1842,311.1078,-19.411499
585.5988,312.234,-20.157593
585.3085,313.384,-20.527588
584.7325,314.48907,-21.261719
584.4468,315.62387,-21.625793
583.8799,316.7083,-22.348267
583.5987,317.82825,-22.706665
583.319,318.94232,-23.06311
582.764,319.998,-23.770508
582.48865,321.09763,-24.121399
582.2147,322.19153,-24.470459
581.94226,323.2798,-24.817749
581.6712,324.36237,-25.163208
581.1333,325.37372,-25.848755
581.1333,326.51077,-25.848755
580.8664,327.5767,-26.188904
580.8664,328.71082,-26.188904
580.6009,329.76834,-26.527283
580.33673,330.82047,-26.863953
580.0739,331.8672,-27.198914
579.81244,332.9086,-27.532166
579.5523,333.94473,-27.863708
579.5523,335.06445,-27.863708
579.29346,336.09247,-28.193542
579.29346,337.20938,-28.193542
579.036,338.22937,-28.521729
579.036,339.34344,-28.521729
578.7798,340.3555,-28.848267
578.52484,341.3625,-29.173157
578.52484,342.47095,-29.173157
578.52484,343.5794,-29.173157
578.2712,344.57574,-29.49646
578.2712,345.68143,-29.49646
578.2712,346.7871,-29.49646
578.2712,347.8928,-29.49646
578.0188,348.87585,-29.818115
578.0188,349.97876,-29.818115
578.0188,351.08167,-29.818115
578.0188,352.1846,-29.818115
578.0188,353.2875,-29.818115
577.7677,354.25464,-30.138123
577.5178,355.21698,-30.456604
577.5178,356.3144,-30.456604
577.2692,357.26923,-30.773438
577.2692,358.36392,-30.773438
577.2692,359.45862,-30.773438
577.0218,360.4033,-31.088745
577.0218,361.49527,-31.088745
577.0218,362.58725,-31.088745
576.77563,363.52185,-31.402466
598.7005,258.84525,-1.298645
596.1709,261.01688,-4.567688
595.1188,262.66385,-5.927307
594.08514,264.28192,-7.2630615
593.7446,265.67255,-7.703125
593.06946,267.15073,-8.575562
592.40216,268.61185,-9.437988
592.07135,269.97003,-9.8654175
592.07135,271.2379,-9.8654175
592.07135,272.50583,-9.8654175
592.07135,273.77374,-9.8654175
591.41547,275.18442,-10.713074
591.41547,276.44507,-10.713074
591.41547,277.70572,-10.713074
591.09033,279.02634,-11.13324
591.09033,280.2834,-11.13324
591.09033,281.54047,-11.13324
591.41547,282.7483,-10.713074
592.07135,283.91693,-9.8654175
592.40216,285.1421,-9.437988
592.40216,286.41367,-9.437988
593.06946,287.61374,-8.575562
593.7446,288.82785,-7.703125
594.4277,290.0562,-6.8204346
594.77216,291.3247,-6.375183
594.77216,292.62247,-6.375183
594.77216,293.92023,-6.375183
594.08514,295.246,-7.2630615
593.7446,296.5463,-7.703125
593.40607,297.839,-8.140625
593.06946,299.1242,-8.575562
592.40216,300.40082,-9.437988
591.41547,301.65802,-10.713074
590.4456,302.89383,-11.966431
589.80817,304.1204,-12.790222
589.1778,305.3332,-13.604797
588.5545,306.53244,-14.410278
587.6325,307.69708,-15.601746
587.0263,308.86685,-16.385193
586.1294,309.9965,-17.544312
585.53955,311.1379,-18.306519
584.95605,312.26703,-19.060547
584.6667,313.42,-19.43451
583.8078,314.48907,-20.544434
583.52454,315.62387,-20.910461
583.2428,316.75266,-21.274597
582.6838,317.82825,-21.99701
582.4065,318.94232,-22.355347
581.85626,319.998,-23.066406
581.5833,321.09763,-23.419128
581.5833,322.24954,-23.419128
581.31177,323.34045,-23.77008
580.50555,324.29935,-24.81189
580.50555,325.43933,-24.81189
580.2396,326.51077,-25.155579
579.97504,327.5767,-25.497498
579.97504,328.71082,-25.497498
579.7118,329.76834,-25.837646
579.1894,330.74176,-26.512817
579.1894,331.8672,-26.512817
579.1894,332.99265,-26.512817
578.9302,334.0312,-26.847778
578.6723,335.06445,-27.181091
578.4157,336.09247,-27.512634
578.4157,337.20938,-27.512634
578.4157,338.32626,-27.512634
578.1604,339.34344,-27.84259
577.9064,340.3555,-28.170837
577.9064,341.46677,-28.170837
577.6537,342.47095,-28.497437
577.4022,343.47006,-28.822388
577.4022,344.57574,-28.822388
577.152,345.5671,-29.145752
577.4022,346.7871,-28.822388
577.152,347.77295,-29.145752
577.152,348.87585,-29.145752
577.152,349.97876,-29.145752
577.152,351.08167,-29.145752
576.903,352.05432,-29.467468
576.903,353.15448,-29.467468
576.4089,353.98514,-30.10608
576.4089,355.07983,-30.10608
576.4089,356.17453,-30.10608
576.4089,357.26923,-30.10608
576.1636,358.2193,-30.423035
576.1636,359.31128,-30.423035
576.1636,360.4033,-30.423035
575.91956,361.34326,-30.738403
575.91956,362.43256,-30.738403
575.6767,363.36523,-31.052246
596.20056,259.34018,-2.3756714
594.78906,261.1327,-4.225342
594.09576,262.66385,-5.133789
592.7336,264.38617,-6.9188843
592.39795,265.77246,-7.3587036
592.06433,267.15073,-7.7958984
591.40283,268.61185,-8.662781
591.0749,269.97003,-9.092468
590.74884,271.32043,-9.519714
590.74884,272.58472,-9.519714
590.4247,273.92377,-9.944519
590.1024,275.2552,-10.366882
590.1024,276.51224,-10.366882
590.1024,277.7693,-10.366882
589.7819,279.086,-10.786865
589.7819,280.33948,-10.786865
589.7819,281.59296,-10.786865
589.7819,282.84644,-10.786865
590.4247,284.00894,-9.944519
591.0749,285.18484,-9.092468
591.0749,286.45276,-9.092468
591.40283,287.6852,-8.662781
592.39795,288.86035,-7.3587036
592.7336,290.11426,-6.9188843
593.07117,291.3755,-6.4765625
593.4107,292.64413,-6.031616
593.07117,293.95584,-6.4765625
592.7336,295.2599,-6.9188843
592.39795,296.55634,-7.3587036
592.06433,297.84528,-7.7958984
591.40283,299.12924,-8.662781
591.0749,300.39966,-9.092468
590.1024,301.6533,-10.366882
589.46326,302.89383,-11.204407
588.8313,304.1204,-12.032532
588.2065,305.3332,-12.851318
587.2822,306.51428,-14.062439
586.6746,307.69708,-14.858765
586.07367,308.86685,-15.64624
585.1845,309.9965,-16.811401
584.5998,311.1379,-17.577637
584.0214,312.26703,-18.335571
583.73456,313.42,-18.711487
582.8831,314.48907,-19.82721
582.60236,315.62387,-20.19513
582.32306,316.75266,-20.561157
581.7689,317.82825,-21.287292
581.494,318.94232,-21.647522
581.2206,320.0505,-22.00586
580.678,321.09763,-22.716919
580.678,322.24954,-22.716919
580.4088,323.34045,-23.069641
579.87463,324.36237,-23.769653
579.6096,325.43933,-24.116943
579.6096,326.57935,-24.116943
579.34595,327.64783,-24.462402
579.0837,328.71082,-24.806091
578.82275,329.76834,-25.148071
578.5632,330.82047,-25.48822
578.3049,331.8672,-25.826721
578.3049,332.99265,-25.826721
578.3049,334.1181,-25.826721
577.79224,335.06445,-26.498413
577.5379,336.09247,-26.831787
577.5379,337.20938,-26.831787
577.2848,338.22937,-27.163391
577.2848,339.34344,-27.163391
577.033,340.3555,-27.493347
577.033,341.46677,-27.493347
577.033,342.57803,-27.493347
576.5332,343.47006,-28.148315
576.5332,344.57574,-28.148315
576.5332,345.68143,-28.148315
576.28516,346.67004,-28.473328
576.28516,347.77295,-28.473328
576.28516,348.87585,-28.473328
576.28516,349.97876,-28.473328
576.28516,351.08167,-28.473328
576.0384,352.05432,-28.796753
575.79285,353.02216,-29.11853
575.79285,354.11957,-29.11853
575.54846,355.07983,-29.43872
575.54846,356.17453,-29.43872
575.54846,357.26923,-29.43872
575.30536,358.2193,-29.757324
575.30536,359.31128,-29.757324
575.30536,360.4033,-29.757324
575.30536,361.49527,-29.757324
575.0634,362.43256,-30.07434
575.0634,363.52185,-30.07434
595.51416,257.8885,-1.0960693
594.4554,259.5832,-2.5030518
593.4154,261.2478,-3.8850708
592.73224,262.7738,-4.7928467
591.72253,264.38617,-6.1346436
590.73035,265.97052,-7.453186
590.40344,267.34027,-7.8875732
590.40344,268.61185,-7.8875732
590.0784,269.97003,-8.319519
589.4339,271.40247,-9.175964
589.11444,272.7411,-9.600525
589.11444,273.99814,-9.600525
588.79675,275.32556,-10.022705
588.79675,276.57904,-10.022705
588.79675,277.83252,-10.022705
588.4809,279.14532,-10.442444
588.4809,280.39523,-10.442444
588.79675,281.59296,-10.022705
588.79675,282.84644,-10.022705
589.11444,284.05457,-9.600525
589.4339,285.2696,-9.175964
590.0784,286.45276,-8.319519
590.40344,287.6852,-7.8875732
591.3899,288.86035,-6.576721
591.3899,290.14304,-6.576721
591.72253,291.40067,-6.1346436
591.72253,292.68707,-6.1346436
591.72253,293.97348,-6.1346436
591.3899,295.27368,-6.576721
590.73035,296.57626,-7.453186
590.40344,297.8577,-7.8875732
590.40344,299.12924,-7.8875732
590.0784,300.39966,-8.319519
589.11444,301.6533,-9.600525
588.1668,302.88565,-10.859802
587.8545,304.1204,-11.274841
587.2351,305.3332,-12.0979
586.6227,306.53244,-12.911743
585.71674,307.69708,-14.115723
585.12103,308.86685,-14.907288
584.2397,309.9965,-16.078491
583.9491,311.1682,-16.46466
583.08673,312.26703,-17.610596
582.8024,313.42,-17.988464
582.2383,314.52786,-18.738098
581.6802,315.62387,-19.479797
581.4033,316.75266,-19.847717
580.854,317.82825,-20.577637
580.58154,318.94232,-20.939758
580.58154,320.10333,-20.939758
580.0409,321.1529,-21.658203
579.5058,322.19153,-22.369202
579.5058,323.34045,-22.369202
579.2404,324.4257,-22.721924
578.7136,325.43933,-23.421936
578.7136,326.57935,-23.421936
578.45233,327.64783,-23.769226
578.1923,328.71082,-24.114685
577.93365,329.76834,-24.458435
577.93365,330.89957,-24.458435
577.67633,331.9488,-24.800354
577.42035,332.99265,-25.140564
577.42035,334.1181,-25.140564
576.91223,335.06445,-25.815796
576.6601,336.09247,-26.150879
576.6601,337.20938,-26.150879
576.40924,338.22937,-26.484253
576.40924,339.34344,-26.484253
576.15967,340.3555,-26.815918
576.15967,341.46677,-26.815918
576.15967,342.57803,-26.815918
575.6642,343.47006,-27.474243
575.6642,344.57574,-27.474243
575.6642,345.68143,-27.474243
575.6642,346.7871,-27.474243
575.6642,347.8928,-27.474243
575.41833,348.87585,-27.800964
575.1737,349.854,-28.126038
575.1737,350.95416,-28.126038
575.1737,352.05432,-28.126038
575.1737,353.15448,-28.126038
574.9303,354.11957,-28.449524
574.6881,355.07983,-28.771362
574.6881,356.17453,-28.771362
574.6881,357.26923,-28.771362
574.6881,358.36392,-28.771362
574.6881,359.45862,-28.771362
574.6881,360.5533,-28.771362
574.6881,361.648,-28.771362
574.44714,362.58725,-29.091614
574.44714,363.67923,-29.091614
593.42017,259.5832,-1.7000732
592.3894,261.2478,-3.0892334
591.7123,262.7738,-4.001709
590.71155,264.38617,-5.350403
589.7281,265.97052,-6.6757812
589.40405,267.34027,-7.1124268
589.0819,268.70212,-7.54657
588.7616,270.05618,-7.9782715
588.12646,271.48404,-8.8341675
588.12646,272.7411,-8.8341675
587.8116,274.07208,-9.258545
587.8116,275.32556,-9.258545
587.8116,276.57904,-9.258545
587.8116,277.83252,-9.258545
587.49854,279.14532,-9.68042
587.18726,280.45068,-10.099976
587.49854,281.64514,-9.68042
588.12646,282.79752,-8.8341675
588.12646,284.05457,-8.8341675
588.4431,285.2696,-8.407471
588.7616,286.4916,-7.9782715
589.0819,287.72064,-7.54657
589.40405,288.9568,-7.1124268
590.3818,290.14304,-5.7948
590.3818,291.4257,-5.7948
590.3818,292.70834,-5.7948
590.3818,293.991,-5.7948
590.054,295.28738,-6.236511
589.7281,296.57626,-6.6757812
589.40405,297.8577,-7.1124268
589.0819,299.13177,-7.54657
589.0819,300.39966,-7.54657
588.12646,301.6533,-8.8341675
587.18726,302.88565,-10.099976
586.8777,304.1204,-10.517151
586.2638,305.3332,-11.344421
585.65674,306.53244,-12.162537
584.7588,307.69708,-13.372681
584.1684,308.86685,-14.168335
583.29486,309.9965,-15.345581
583.00684,311.1682,-15.733765
582.4355,312.3002,-16.503723
581.8703,313.42,-17.265442
581.31116,314.52786,-18.018982
580.75793,315.62387,-18.764465
580.75793,316.79727,-18.764465
580.21063,317.87546,-19.502075
579.9391,318.99234,-19.867981
579.66907,320.10333,-20.231934
579.1332,321.1529,-20.954163
578.60284,322.19153,-21.668823
578.60284,323.34045,-21.668823
578.3398,324.4257,-22.023376
577.8177,325.43933,-22.726929
577.8177,326.57935,-22.726929
577.55865,327.64783,-23.075989
577.30096,328.71082,-23.423279
577.30096,329.84494,-23.423279
577.0446,330.89957,-23.768799
576.78955,331.9488,-24.112488
576.5358,332.99265,-24.454468
576.2833,334.0312,-24.794678
576.2833,335.15378,-24.794678
576.03217,336.18417,-25.133179
575.7823,337.20938,-25.46997
575.5336,338.22937,-25.805054
575.5336,339.34344,-25.805054
575.5336,340.45752,-25.805054
575.28625,341.46677,-26.138428
575.0401,342.47095,-26.470154
575.0401,343.5794,-26.470154
574.7952,344.57574,-26.800232
574.7952,345.68143,-26.800232
574.7952,346.7871,-26.800232
574.7952,347.8928,-26.800232
574.5515,348.87585,-27.128601
574.5515,349.97876,-27.128601
574.5515,351.08167,-27.128601
574.5515,352.1846,-27.128601
574.3091,353.15448,-27.455383
574.0678,354.11957,-27.780518
574.0678,355.21698,-27.780518
573.82776,356.17453,-28.104004
574.3091,357.55515,-27.455383
574.3091,358.6553,-27.455383
574.0678,359.60666,-27.780518
573.82776,360.5533,-28.104004
573.82776,361.648,-28.104004
573.82776,362.7427,-28.104004
573.58887,363.67923,-28.425903
592.38495,259.5832,-0.8970947
591.3634,261.2478,-2.293396
590.3598,262.8831,-3.6651
589.7005,264.38617,-4.566162
589.0488,265.8718,-5.456848
588.4047,267.34027,-6.337219
587.768,268.7919,-7.2075195
587.45233,270.1418,-7.638916
587.45233,271.40247,-7.638916
587.1385,272.7411,-8.067871
587.1385,273.99814,-8.067871
586.8265,275.32556,-8.494324
586.8265,276.57904,-8.494324
586.20764,277.9579,-9.340149
586.20764,279.20428,-9.340149
586.20764,280.45068,-9.340149
586.5162,281.64514,-8.918457
587.1385,282.79752,-8.067871
587.1385,284.05457,-8.067871
587.1385,285.3116,-8.067871
587.768,286.4916,-7.2075195
588.08545,287.72064,-6.7736206
588.4047,288.9568,-6.337219
588.7258,290.20007,-5.8983154
589.3737,291.4257,-5.0128174
589.3737,292.70834,-5.0128174
589.3737,293.991,-5.0128174
589.0488,295.28738,-5.456848
588.7258,296.57626,-5.8983154
588.4047,297.8577,-6.337219
588.08545,299.13177,-6.7736206
587.768,300.39853,-7.2075195
587.1385,301.6533,-8.067871
586.20764,302.88565,-9.340149
585.5958,304.1088,-10.176392
584.9908,305.31827,-11.003296
584.3926,306.51428,-11.820984
583.8009,307.69708,-12.629639
583.21576,308.86685,-13.429443
582.637,310.02383,-14.220398
582.0646,311.1682,-15.002869
581.4983,312.3002,-15.776794
580.9382,313.42,-16.54242
580.384,314.52786,-17.299805
580.10913,315.6656,-17.675476
579.83575,316.79727,-18.049133
579.5638,317.92294,-18.420837
579.02423,318.99234,-19.158325
578.75653,320.10333,-19.52417
578.22546,321.1529,-20.250061
577.962,322.24954,-20.610168
577.6999,323.34045,-20.968384
577.43915,324.4257,-21.324768
576.9217,325.43933,-22.031982
576.66504,326.51077,-22.382812
576.66504,327.64783,-22.382812
576.66504,328.78488,-22.382812
576.4096,329.84494,-22.731873
576.1556,330.89957,-23.079163
575.9028,331.9488,-23.424622
575.6513,332.99265,-23.768372
575.40106,334.0312,-24.110352
575.6513,335.24353,-23.768372
575.40106,336.27634,-24.110352
574.9045,337.20938,-24.789062
574.6581,338.22937,-25.125854
574.6581,339.34344,-25.125854
574.6581,340.45752,-25.125854
574.6581,341.5716,-25.125854
574.4129,342.57803,-25.460999
574.16895,343.5794,-25.794373
573.9262,344.57574,-26.12616
573.9262,345.68143,-26.12616
573.9262,346.7871,-26.12616
573.9262,347.8928,-26.12616
573.68475,348.87585,-26.456238
573.68475,349.97876,-26.456238
573.68475,351.08167,-26.456238
573.68475,352.1846,-26.456238
573.68475,353.2875,-26.456238
573.4444,354.25464,-26.784668
573.4444,355.3548,-26.784668
573.2053,356.3144,-27.11145
573.2053,357.41183,-27.11145
573.2053,358.50925,-27.11145
573.2053,359.60666,-27.11145
572.9674,360.5533,-27.436646
572.73065,361.49527,-27.760193
572.9674,362.7427,-27.436646
572.9674,363.8374,-27.436646
593.7841,257.37433,3.2805176
591.6913,259.46207,0.37927246
590.67285,261.1327,-1.0325317
589.0152,262.99173,-3.3304443
588.3656,264.4898,-4.230896
588.0437,265.8718,-4.677185
587.40533,267.34027,-5.5620728
587.0889,268.70212,-6.0006714
586.77435,270.05618,-6.4367676
586.1506,271.48404,-7.3015137
586.1506,272.7411,-7.3015137
586.1506,273.99814,-7.3015137
585.8413,275.32556,-7.7301636
585.5338,276.64548,-8.156433
585.5338,277.8954,-8.156433
585.2281,279.20428,-8.580261
585.5338,280.39523,-8.156433
585.8413,281.59296,-7.7301636
585.8413,282.84644,-7.7301636
586.1506,284.05457,-7.3015137
586.1506,285.3116,-7.3015137
586.46155,286.53024,-6.8703613
587.0889,287.72064,-6.0006714
587.40533,288.9568,-5.5620728
587.7236,290.20007,-5.1209106
588.3656,291.4257,-4.230896
588.68945,292.68707,-3.7819824
588.3656,293.991,-4.230896
588.0437,295.28738,-4.677185
587.7236,296.57626,-5.1209106
587.40533,297.8577,-5.5620728
587.40533,299.12924,-5.5620728
587.0889,300.39966,-6.0006714
586.1506,301.6533,-7.3015137
585.2281,302.88565,-8.580261
584.62177,304.1088,-9.420837
584.0222,305.31827,-10.251953
583.4293,306.51428,-11.0737915
583.1353,307.7184,-11.481323
582.55225,308.8913,-12.289673
581.6896,310.02383,-13.485535
581.40515,311.19867,-13.879822
580.84094,312.3336,-14.661926
580.00604,313.42,-15.819336
579.7307,314.56683,-16.200989
579.18445,315.6656,-16.958252
578.9135,316.79727,-17.333801
578.64404,317.92294,-17.707397
578.1093,318.99234,-18.44867
577.84406,320.10333,-18.816345
577.5802,321.2085,-19.182129
577.05664,322.24954,-19.907898
576.79694,323.34045,-20.267944
576.79694,324.48938,-20.267944
576.5385,325.57162,-20.62616
576.02576,326.57935,-21.336975
575.77136,327.64783,-21.689636
575.51825,328.71082,-22.040466
575.2665,329.76834,-22.389526
575.2665,330.89957,-22.389526
575.016,331.9488,-22.736755
574.7668,332.99265,-23.082275
574.7668,334.1181,-23.082275
574.5188,335.15378,-23.425964
574.2721,336.18417,-23.767944
574.0267,337.20938,-24.108215
574.0267,338.32626,-24.108215
573.7825,339.34344,-24.446716
573.7825,340.45752,-24.446716
573.7825,341.5716,-24.446716
573.5395,342.57803,-24.783508
573.2978,343.5794,-25.118652
573.05725,344.57574,-25.452087
573.05725,345.68143,-25.452087
573.05725,346.7871,-25.452087
573.05725,347.8928,-25.452087
572.81793,348.87585,-25.783875
572.81793,349.97876,-25.783875
572.81793,351.08167,-25.783875
572.5798,352.05432,-26.113953
572.81793,353.2875,-25.783875
572.81793,354.3904,-25.783875
572.5798,355.3548,-26.113953
572.5798,356.455,-26.113953
572.5798,357.55515,-26.113953
572.34283,358.50925,-26.442444
572.34283,359.60666,-26.442444
572.34283,360.7041,-26.442444
572.10706,361.648,-26.769287
572.10706,362.7427,-26.769287
572.10706,363.8374,-26.769287
591.3359,257.8885,2.1449585
590.9934,259.34018,1.6633911
589.97815,261.01688,0.23590088
588.9809,262.66385,-1.1663208
587.35754,264.4898,-3.4489136
587.0385,265.8718,-3.897461
586.406,267.34027,-4.786865
586.406,268.61185,-4.786865
585.7807,270.05618,-5.6660156
585.47076,271.40247,-6.1018677
585.1626,272.7411,-6.5351562
585.1626,273.99814,-6.5351562
584.85614,275.32556,-6.9660034
584.85614,276.57904,-6.9660034
584.55145,277.8954,-7.39447
584.55145,279.14532,-7.39447
584.85614,280.33948,-6.9660034
584.85614,281.59296,-6.9660034
585.1626,282.79752,-6.5351562
585.1626,284.05457,-6.5351562
585.1626,285.3116,-6.5351562
585.7807,286.4916,-5.6660156
586.406,287.6852,-4.786865
586.406,288.9568,-4.786865
587.0385,290.17163,-3.897461
587.6784,291.40067,-2.9977417
587.6784,292.68707,-2.9977417
587.35754,293.991,-3.4489136
587.35754,295.27368,-3.4489136
587.0385,296.5663,-3.897461
586.7213,297.8515,-4.343445
586.406,299.12924,-4.786865
586.09247,300.39966,-5.227722
585.1626,301.6533,-6.5351562
584.55145,302.89383,-7.39447
583.94727,304.1204,-8.244019
583.3498,305.3332,-9.084106
582.759,306.53244,-9.914795
582.17474,307.7184,-10.736267
581.597,308.8913,-11.548706
581.0255,310.0513,-12.352173
580.4603,311.19867,-13.146912
579.90125,312.3336,-13.933044
579.3482,313.45624,-14.710632
578.8011,314.56683,-15.479919
578.2598,315.6656,-16.240967
577.99133,316.79727,-16.61847
577.4586,317.87546,-17.367432
577.1944,318.99234,-17.739014
576.9316,320.10333,-18.10852
576.6701,321.2085,-18.476196
576.41003,322.30786,-18.841858
575.8939,323.34045,-19.567566
575.8939,324.48938,-19.567566
575.6379,325.57162,-19.927551
575.3832,326.64825,-20.285706
574.8777,327.64783,-20.99646
574.6269,328.71082,-21.34906
574.37744,329.76834,-21.69989
574.37744,330.89957,-21.69989
574.1292,331.9488,-22.04889
573.88226,332.99265,-22.39618
573.88226,334.1181,-22.39618
573.3921,335.06445,-23.085327
573.14886,336.09247,-23.427307
573.14886,337.20938,-23.427307
573.14886,338.32626,-23.427307
572.9069,339.34344,-23.767517
572.9069,340.45752,-23.767517
572.9069,341.5716,-23.767517
572.66614,342.57803,-24.10608
572.18823,343.47006,-24.778015
572.18823,344.57574,-24.778015
572.18823,345.68143,-24.778015
572.18823,346.7871,-24.778015
571.9511,347.77295,-25.111511
571.9511,348.87585,-25.111511
571.9511,349.97876,-25.111511
571.7151,350.95416,-25.443298
571.7151,352.05432,-25.443298
571.7151,353.15448,-25.443298
571.9511,354.3904,-25.111511
571.7151,355.3548,-25.443298
571.7151,356.455,-25.443298
571.7151,357.55515,-25.443298
571.48035,358.50925,-25.773438
571.48035,359.60666,-25.773438
571.48035,360.7041,-25.773438
571.48035,361.8015,-25.773438
571.2467,362.7427,-26.101929
571.2467,363.8374,-26.101929
590.2913,257.8885,2.9552002
589.95197,259.34018,2.4711914
589.27936,260.90036,1.5118408
588.94604,262.3301,1.036499
586.9872,264.28192,-1.7573853
586.3494,265.77246,-2.6669312
585.71906,267.2458,-3.56604
585.4066,268.61185,-4.0116577
584.7871,270.05618,-4.8952637
584.48,271.40247,-5.333313
584.48,272.66312,-5.333313
584.1746,273.99814,-5.768799
583.87103,275.32556,-6.2018433
583.87103,276.57904,-6.2018433
583.87103,277.83252,-6.2018433
583.87103,279.086,-6.2018433
583.87103,280.33948,-6.2018433
584.1746,281.54047,-5.768799
584.1746,282.79752,-5.768799
584.48,284.00894,-5.333313
585.09595,285.18484,-4.454773
585.09595,286.45276,-4.454773
585.4066,287.6852,-4.0116577
586.0333,288.8927,-3.1177979
586.3494,290.14304,-2.6669312
586.9872,291.3755,-1.7573853
586.9872,292.66565,-1.7573853
586.6674,293.97348,-2.213501
586.3494,295.27368,-2.6669312
586.3494,296.55634,-2.6669312
586.0333,297.84528,-3.1177979
585.4066,299.12924,-4.0116577
585.09595,300.39966,-4.454773
584.1746,301.6533,-5.768799
583.87103,302.90207,-6.2018433
583.2689,304.13205,-7.060608
582.6736,305.34818,-7.909668
581.7931,306.53244,-9.165527
581.21423,307.7184,-9.99115
580.6417,308.8913,-10.807678
580.0755,310.0513,-11.615234
579.51544,311.19867,-12.414001
579.23773,312.36713,-12.81012
578.4135,313.45624,-13.985657
577.87146,314.56683,-14.758789
577.33514,315.6656,-15.523743
577.06915,316.79727,-15.903137
576.5413,317.87546,-16.655945
576.27954,318.99234,-17.029297
576.0191,320.10333,-17.400757
576.0191,321.26434,-17.400757
575.5023,322.30786,-18.137756
575.246,323.40146,-18.503418
574.99097,324.48938,-18.867126
574.7373,325.57162,-19.228943
574.4849,326.64825,-19.588928
574.2338,327.71933,-19.947021
573.9841,328.78488,-20.303284
573.73553,329.84494,-20.657654
573.48834,330.89957,-21.010254
573.24243,331.9488,-21.361023
573.24243,333.07712,-21.361023
572.9977,334.1181,-21.710022
572.7543,335.15378,-22.057251
572.5121,336.18417,-22.40271
572.27106,337.20938,-22.746399
572.27106,338.32626,-22.746399
572.0313,339.34344,-23.088379
572.0313,340.45752,-23.088379
571.7928,341.46677,-23.428589
571.5554,342.47095,-23.76715
571.3193,343.47006,-24.104004
571.3193,344.57574,-24.104004
571.3193,345.68143,-24.104004
571.3193,346.7871,-24.104004
571.3193,347.8928,-24.104004
571.0843,348.87585,-24.439087
571.0843,349.97876,-24.439087
570.85046,350.95416,-24.772583
570.85046,352.05432,-24.772583
570.85046,353.15448,-24.772583
570.85046,354.25464,-24.772583
570.85046,355.3548,-24.772583
570.85046,356.455,-24.772583
570.85046,357.55515,-24.772583
570.38635,358.36392,-25.43457
570.38635,359.45862,-25.43457
570.38635,360.5533,-25.43457
570.38635,361.648,-25.43457
570.38635,362.7427,-25.43457
570.156,363.67923,-25.763062
589.24677,259.21756,3.765442
588.57635,260.78317,2.7954712
588.24414,262.21753,2.3148193
585.0282,264.59283,-2.3381348
584.7168,265.97052,-2.7886353
584.4073,267.34027,-3.2365112
584.0995,268.70212,-3.6818237
583.79346,270.05618,-4.1245728
583.79346,271.32043,-4.1245728
583.4892,272.66312,-4.5647583
583.18665,273.99814,-5.0025024
583.18665,275.2552,-5.0025024
582.88586,276.57904,-5.437683
582.88586,277.83252,-5.437683
582.88586,279.086,-5.437683
582.88586,280.33948,-5.437683
582.88586,281.59296,-5.437683
583.18665,282.79752,-5.0025024
583.79346,283.96307,-4.1245728
584.4073,285.1421,-3.2365112
584.4073,286.41367,-3.2365112
585.0282,287.61374,-2.3381348
585.3414,288.86035,-1.8850098
585.6564,290.11426,-1.4292603
586.29193,291.35016,-0.5097046
586.6125,292.62247,-0.045898438
586.29193,293.93808,-0.5097046
585.6564,295.2599,-1.4292603
585.6564,296.5463,-1.4292603
585.3414,297.839,-1.8850098
585.0282,299.1242,-2.3381348
584.7168,300.40198,-2.7886353
583.79346,301.66278,-4.1245728
582.88586,302.90207,-5.437683
582.28937,304.13205,-6.3007812
581.9936,305.36328,-6.7286377
581.11633,306.55072,-7.997925
580.5396,307.73987,-8.832336
579.96924,308.9159,-9.657532
579.1255,310.0513,-10.878357
578.5706,311.19867,-11.681091
578.2955,312.36713,-12.079224
577.4789,313.45624,-13.260681
577.2096,314.60605,-13.650269
576.6754,315.70752,-14.423157
576.41046,316.8421,-14.806519
575.624,317.87546,-15.944397
575.3646,318.99234,-16.319641
575.3646,320.15643,-16.319641
575.1066,321.26434,-16.692932
574.5946,322.30786,-17.433716
574.34064,323.40146,-17.801147
574.088,324.48938,-18.166748
573.5866,325.5053,-18.89215
573.3378,326.57935,-19.252014
573.3378,327.71933,-19.252014
573.0904,328.78488,-19.610046
572.84424,329.84494,-19.966248
572.5993,330.89957,-20.320618
572.5993,332.0308,-20.320618
572.3556,333.07712,-20.673157
572.11316,334.1181,-21.023926
571.872,335.15378,-21.372925
571.632,336.18417,-21.720093
571.39325,337.20938,-22.065552
571.39325,338.32626,-22.065552
571.15576,339.34344,-22.40918
571.15576,340.45752,-22.40918
570.9194,341.46677,-22.75116
570.68427,342.47095,-23.09137
570.45026,343.47006,-23.429932
570.45026,344.57574,-23.429932
570.45026,345.68143,-23.429932
570.45026,346.7871,-23.429932
570.45026,347.8928,-23.429932
570.21747,348.87585,-23.766724
569.9858,349.854,-24.101868
569.9858,350.95416,-24.101868
569.9858,352.05432,-24.101868
569.7553,353.02216,-24.435364
569.9858,354.25464,-24.101868
569.9858,355.3548,-24.101868
569.7553,356.3144,-24.435364
569.7553,357.41183,-24.435364
569.526,358.36392,-24.767212
569.526,359.45862,-24.767212
569.526,360.5533,-24.767212
569.526,361.648,-24.767212
569.2978,362.58725,-25.097351
569.2978,363.67923,-25.097351
588.5373,259.0942,5.067566
587.86914,260.66525,4.086792
587.2089,262.21753,3.1177979
584.6453,264.38617,-0.64501953
584.33325,265.77246,-1.1030273
583.7146,267.2458,-2.0111694
583.4079,268.61185,-2.4613037
583.10297,269.97003,-2.9088745
583.10297,271.2379,-2.9088745
582.7998,272.58472,-3.3538208
582.4984,273.92377,-3.7962646
582.1987,275.2552,-4.236145
582.1987,276.51224,-4.236145
582.1987,277.7693,-4.236145
582.1987,279.02634,-4.236145
582.1987,280.2834,-4.236145
582.1987,281.54047,-4.236145
582.7998,282.69882,-3.3538208
583.10297,283.91693,-2.9088745
583.4079,285.1421,-2.4613037
584.023,286.3348,-1.5584106
584.33325,287.5777,-1.1030273
584.6453,288.82785,-0.64501953
584.9592,290.08533,-0.18432617
585.5925,291.3247,0.74523926
585.912,292.60068,1.2141724
585.5925,293.92023,0.74523926
585.27496,295.23206,0.27911377
585.27496,296.526,0.27911377
584.9592,297.82635,-0.18432617
584.6453,299.11908,-0.64501953
584.33325,300.40433,-1.1030273
583.4079,301.67236,-2.4613037
582.1987,302.91034,-4.236145
581.30975,304.13205,-5.5409546
581.0168,305.36328,-5.9709473
580.4358,306.5691,-6.8237915
579.57635,307.73987,-8.085144
579.01135,308.9159,-8.91449
578.1754,310.0513,-10.141418
577.6258,311.19867,-10.948242
577.3532,312.36713,-11.348328
576.81244,313.49265,-12.142029
576.27747,314.60605,-12.927246
576.0122,315.74966,-13.31665
575.4858,316.8421,-14.089233
574.965,317.92294,-14.853638
574.4497,318.99234,-15.609985
574.4497,320.15643,-15.609985
573.9399,321.2085,-16.358337
573.4353,322.24954,-17.098938
573.4353,323.40146,-17.098938
573.185,324.48938,-17.466309
572.68835,325.5053,-18.195374
572.4419,326.57935,-18.557068
572.1967,327.64783,-18.91687
572.1967,328.78488,-18.91687
571.9529,329.84494,-19.274841
571.7102,330.89957,-19.630981
571.4688,331.9488,-19.98529
571.4688,333.07712,-19.98529
571.22864,334.1181,-20.33783
571.22864,335.24353,-20.33783
570.752,336.18417,-21.037476
570.5155,337.20938,-21.384644
570.5155,338.32626,-21.384644
570.28015,339.34344,-21.730042
570.28015,340.45752,-21.730042
570.046,341.46677,-22.07367
569.58124,342.36438,-22.75586
569.58124,343.47006,-22.75586
569.58124,344.57574,-22.75586
569.35065,345.5671,-23.09436
569.58124,346.7871,-22.75586
569.35065,347.77295,-23.09436
569.35065,348.87585,-23.09436
569.12115,349.854,-23.431213
569.12115,350.95416,-23.431213
569.12115,352.05432,-23.431213
568.8928,353.02216,-23.766357
568.8928,354.11957,-23.766357
568.8928,355.21698,-23.766357
568.6656,356.17453,-24.099854
568.6656,357.26923,-24.099854
568.6656,358.36392,-24.099854
568.6656,359.45862,-24.099854
568.4395,360.4033,-24.43164
568.4395,361.49527,-24.43164
568.4395,362.58725,-24.43164
568.4395,363.67923,-24.43164
587.8235,258.9701,6.3775024
587.48956,260.4273,5.880249
585.5276,262.44202,2.9585571
584.258,264.17703,1.0679932
583.6343,265.67255,0.13922119
583.3252,267.0551,-0.32110596
582.71234,268.52103,-1.2337646
582.40857,269.8834,-1.6860962
582.40857,271.15497,-1.6860962
582.1065,272.50583,-2.1358643
581.8062,273.84897,-2.5830688
581.5076,275.18442,-3.02771
581.5076,276.44507,-3.02771
581.21075,277.7693,-3.4697876
581.5076,278.96637,-3.02771
581.5076,280.22702,-3.02771
581.8062,281.43454,-2.5830688
582.1065,282.64905,-2.1358643
582.1065,283.91693,-2.1358643
582.71234,285.09912,-1.2337646
583.3252,286.29504,-0.32110596
583.6343,287.54144,0.13922119
584.258,288.76224,1.0679932
585.20734,289.96783,2.4816895
585.5276,291.24738,2.9585571
585.5276,292.5567,2.9585571
585.8497,293.84778,3.4382324
585.20734,295.18967,2.4816895
584.88904,296.5055,2.0076904
584.5726,297.81354,1.536438
584.258,299.11392,1.0679932
583.6343,300.4055,0.13922119
583.0179,301.68207,-0.77874756
581.8062,302.92703,-2.5830688
580.9155,304.15555,-3.9093628
580.04,305.36328,-5.213257
579.4644,306.5691,-6.0703125
578.61316,307.73987,-7.3380127
578.05347,308.9159,-8.171448
577.2254,310.0513,-9.404541
576.6809,311.19867,-10.215332
576.4109,312.36713,-10.617432
575.87524,313.49265,-11.4151
575.34534,314.60605,-12.204163
574.82117,315.70752,-12.984802
574.56116,316.8421,-13.372009
574.3025,317.97064,-13.757141
573.78937,319.04263,-14.521301
573.53485,320.15643,-14.90033
573.0298,321.2085,-15.652405
572.52997,322.24954,-16.396667
572.28204,323.34045,-16.76587
572.28204,324.48938,-16.76587
571.79004,325.5053,-17.498596
571.5459,326.57935,-17.86206
571.5459,327.71933,-17.86206
571.3031,328.78488,-18.223694
571.0615,329.84494,-18.583435
570.58203,330.82047,-19.297424
570.58203,331.9488,-19.297424
570.58203,333.07712,-19.297424
570.3441,334.1181,-19.651733
570.3441,335.24353,-19.651733
569.87195,336.18417,-20.354858
569.6377,337.20938,-20.703735
569.6377,338.32626,-20.703735
569.4046,339.34344,-21.050842
569.4046,340.45752,-21.050842
568.9419,341.3625,-21.739868
568.7123,342.36438,-22.081787
568.7123,343.47006,-22.081787
568.7123,344.57574,-22.081787
568.7123,345.68143,-22.081787
568.7123,346.7871,-22.081787
568.4838,347.77295,-22.421997
568.2565,348.75385,-22.760498
568.2565,349.854,-22.760498
568.2565,350.95416,-22.760498
568.03033,351.9247,-23.09729
567.80524,352.89044,-23.432495
567.80524,353.98514,-23.432495
567.80524,355.07983,-23.432495
567.80524,356.17453,-23.432495
567.5813,357.12732,-23.76593
567.5813,358.2193,-23.76593
567.5813,359.31128,-23.76593
567.80524,360.5533,-23.432495
567.5813,361.49527,-23.76593
567.5813,362.58725,-23.76593
567.35846,363.52185,-24.097778
586.11304,260.54663,6.196167
584.81757,262.3301,4.2388306
583.866,263.96545,2.8011475
582.9312,265.57208,1.3887329
582.3171,267.0551,0.46087646
582.3171,268.3378,0.46087646
582.0127,269.70862,9.1552734E-4
581.7101,271.0715,-0.45629883
581.4092,272.4265,-0.9109497
581.4092,273.69806,-0.9109497
581.11,275.04163,-1.362915
581.11,276.30954,-1.362915
581.11,277.57745,-1.362915
580.81256,278.90604,-1.8123169
580.81256,280.1703,-1.8123169
581.11,281.38113,-1.362915
581.4092,282.599,-0.9109497
581.7101,283.82388,-0.45629883
582.3171,285.0124,0.46087646
582.6233,286.25504,0.9234619
583.241,287.4683,1.8568115
583.866,288.69586,2.8011475
585.78625,289.81705,5.7024536
586.44183,291.08853,6.692932
586.44183,292.42163,6.692932
586.11304,293.77356,6.196167
585.4614,295.132,5.21167
585.13855,296.4637,4.723816
584.49854,297.79407,3.756775
584.18134,299.10605,3.277588
583.5526,300.4091,2.3275757
582.3171,301.68698,0.46087646
581.11,302.93546,-1.362915
580.2228,304.1674,-2.7034912
579.63965,305.39368,-3.5844727
578.77734,306.58755,-4.887451
577.9294,307.76147,-6.168579
577.0955,308.9159,-7.428467
576.54724,310.07895,-8.256836
576.005,311.2293,-9.076111
575.4686,312.36713,-9.886536
574.6749,313.45624,-11.085693
574.4132,314.60605,-11.48114
573.89404,315.70752,-12.265625
573.6365,316.8421,-12.654785
573.3803,317.97064,-13.041809
572.8721,319.04263,-13.809753
572.61993,320.15643,-14.190674
572.1197,321.2085,-14.946472
571.8715,322.30786,-15.321411
571.3791,323.34045,-16.06549
571.3791,324.48938,-16.06549
570.8917,325.5053,-16.801758
570.8917,326.64825,-16.801758
570.64996,327.71933,-17.167114
570.4094,328.78488,-17.530518
570.17017,329.84494,-17.892029
569.93207,330.89957,-18.251709
569.69525,331.9488,-18.609558
569.69525,333.07712,-18.609558
569.4596,334.1181,-18.965637
569.22516,335.15378,-19.319824
568.99194,336.18417,-19.672241
568.7599,337.20938,-20.022827
568.529,338.22937,-20.371704
568.529,339.34344,-20.371704
568.29926,340.3555,-20.71875
568.0707,341.3625,-21.064087
567.84326,342.36438,-21.407715
567.84326,343.47006,-21.407715
567.84326,344.57574,-21.407715
567.84326,345.68143,-21.407715
567.617,346.67004,-21.749634
567.617,347.77295,-21.749634
567.617,348.87585,-21.749634
567.39185,349.854,-22.089783
567.1678,350.8273,-22.428284
566.9449,351.79575,-22.765076
566.9449,352.89044,-22.765076
566.9449,353.98514,-22.765076
566.9449,355.07983,-22.765076
566.7231,356.03534,-23.10022
566.7231,357.12732,-23.10022
566.5024,358.07544,-23.433716
566.5024,359.1647,-23.433716
566.7231,360.4033,-23.10022
566.5024,361.34326,-23.433716
566.5024,362.43256,-23.433716
566.5024,363.52185,-23.433716
584.10333,262.21753,5.5267944
583.15533,263.8587,4.0734253
582.53265,265.36932,3.1187744
582.22406,266.76495,2.64563
581.61224,268.24536,1.7077026
581.309,269.62045,1.2427979
581.309,270.9031,1.2427979
581.00757,272.26648,0.78063965
580.7078,273.62198,0.32110596
580.4098,274.96964,-0.13574219
580.4098,276.24118,-0.13574219
580.4098,277.51276,-0.13574219
580.1135,278.84534,-0.5899658
580.1135,280.11325,-0.5899658
580.4098,281.32742,-0.13574219
581.00757,282.498,0.78063965
581.309,283.72974,1.2427979
581.91724,284.92462,2.175293
582.53265,286.13364,3.1187744
583.4695,287.31937,4.5549927
586.3829,289.66162,9.021484
586.3829,291.00693,9.021484
586.3829,292.35223,9.021484
586.7165,293.67825,9.532959
586.7165,295.02768,9.532959
586.3829,296.38815,9.021484
586.0513,297.74036,8.513123
585.3941,299.08713,7.505615
583.78546,300.41394,5.0394287
581.61224,301.6919,1.7077026
580.4098,302.94394,-0.13574219
579.819,304.1913,-1.041626
578.94525,305.40903,-2.3810425
578.08636,306.60614,-3.697876
577.2418,307.78317,-4.9925537
576.13763,308.9159,-6.685425
575.5946,310.07895,-7.5178833
575.0576,311.2293,-8.341187
574.52637,312.36713,-9.15564
573.7403,313.45624,-10.360718
573.4811,314.60605,-10.758118
572.96686,315.70752,-11.546509
572.7118,316.8421,-11.9375
572.4581,317.97064,-12.326477
571.9547,319.04263,-13.098206
571.45667,320.10333,-13.861755
571.2096,321.2085,-14.24054
571.2096,322.36646,-14.24054
570.7193,323.40146,-14.9921875
570.47614,324.48938,-15.365051
570.23413,325.57162,-15.735962
569.99347,326.64825,-16.10498
569.754,327.71933,-16.472107
569.5158,328.78488,-16.837341
569.2788,329.84494,-17.200623
569.2788,330.97906,-17.200623
568.8085,331.9488,-17.921692
568.8085,333.07712,-17.921692
568.5751,334.1181,-18.27948
568.3429,335.15378,-18.635437
568.1119,336.18417,-18.989624
567.8821,337.20938,-19.341919
567.8821,338.32626,-19.341919
567.65344,339.34344,-19.692505
567.4259,340.3555,-20.04132
567.1995,341.3625,-20.388367
566.9743,342.36438,-20.733704
566.7502,343.3613,-21.07727
566.7502,344.4642,-21.07727
566.7502,345.5671,-21.07727
566.7502,346.67004,-21.07727
566.5272,347.6537,-21.419128
566.5272,348.75385,-21.419128
566.5272,349.854,-21.419128
566.3053,350.8273,-21.759277
566.08453,351.79575,-22.097717
566.08453,352.89044,-22.097717
565.86487,353.85138,-22.43457
565.86487,354.94336,-22.43457
565.86487,356.03534,-22.43457
565.64624,356.98615,-22.769653
565.4287,357.93225,-23.10315
565.2123,358.8737,-23.434998
565.2123,359.9576,-23.434998
565.2123,361.04153,-23.434998
565.2123,362.1255,-23.434998
565.2123,363.2094,-23.434998
583.7034,263.31543,7.318054
582.12933,265.16418,4.8692627
581.8201,266.56866,4.3881836
581.5127,267.96487,3.909912
581.2071,269.35287,3.4345093
580.90326,270.73276,2.961853
580.90326,272.02292,2.961853
580.6012,273.391,2.4919434
580.3009,274.7511,2.0247803
580.3009,276.03375,2.0247803
580.3009,277.3164,2.0247803
580.0024,278.6612,1.5603027
579.70557,279.99817,1.0985107
580.0024,281.21906,1.5603027
580.6012,282.3958,2.4919434
580.90326,283.63446,2.961853
581.8201,284.79108,4.3881836
582.12933,286.05148,4.8692627
585.98834,293.6588,10.872742
585.65594,295.02768,10.355621
585.65594,296.37708,10.355621
580.6012,301.6919,2.4919434
580.0024,302.96103,1.5603027
579.41046,304.21548,0.63946533
578.2469,305.42444,-1.1707764
577.1095,306.60614,-2.9401855
576.2732,307.78317,-4.241211
575.4508,308.9406,-5.52063
574.64197,310.07895,-6.7789307
574.11017,311.2293,-7.6063232
573.5841,312.36713,-8.424744
573.0637,313.49265,-9.234253
572.54895,314.60605,-10.035095
572.03973,315.70752,-10.827332
571.7871,316.8421,-11.220276
571.5359,317.97064,-11.611145
571.0374,319.04263,-12.386658
570.79016,320.15643,-12.771301
570.5442,321.26434,-13.153992
570.0561,322.30786,-13.913269
569.81396,323.40146,-14.289917
569.5731,324.48938,-14.664612
569.33356,325.57162,-15.037415
568.85803,326.57935,-15.777161
568.85803,327.71933,-15.777161
568.62213,328.78488,-16.144104
568.38745,329.84494,-16.509216
568.15393,330.89957,-16.872498
567.9217,331.9488,-17.233887
567.69055,332.99265,-17.593384
567.69055,334.1181,-17.593384
567.46063,335.15378,-17.95111
567.2319,336.18417,-18.306946
567.0043,337.20938,-18.661072
567.0043,338.32626,-18.661072
566.77783,339.34344,-19.013367
566.5525,340.3555,-19.36383
566.32837,341.3625,-19.712585
566.1053,342.36438,-20.059631
566.1053,343.47006,-20.059631
565.88336,344.4642,-20.404846
565.88336,345.5671,-20.404846
565.88336,346.67004,-20.404846
565.88336,347.77295,-20.404846
565.66254,348.75385,-20.748413
565.4428,349.7299,-21.090271
565.4428,350.8273,-21.090271
565.2242,351.79575,-21.430359
565.2242,352.89044,-21.430359
565.00665,353.85138,-21.768799
565.00665,354.94336,-21.768799
564.79016,355.89685,-22.10559
564.79016,356.98615,-22.10559
564.79016,358.07544,-22.10559
564.3604,358.8737,-22.77417
564.3604,359.9576,-22.77417
564.3604,361.04153,-22.77417
564.1471,361.97305,-23.106018
564.1471,363.05432,-23.106018
582.03296,264.85184,7.1327515
581.4114,266.37003,6.151428
580.7971,267.87024,5.1817017
580.49274,269.26263,4.701111
580.49274,270.5604,4.701111
580.49274,271.8582,4.701111
580.49274,273.15594,4.701111
580.1901,274.52872,4.2233276
579.8893,275.89343,3.748352
579.8893,277.18362,3.748352
579.8893,278.4738,3.748352
580.49274,279.64478,4.701111
580.49274,280.94257,4.701111
580.49274,282.24033,4.701111
580.7971,283.48947,5.1817017
581.72125,284.65512,6.640625
579.5902,302.9783,3.276184
578.7033,304.2277,1.8759766
577.5445,305.43997,0.046447754
576.6926,306.64362,-1.298523
575.30457,307.78317,-3.4898682
574.49023,308.9406,-4.7755127
573.68933,310.07895,-6.039978
573.1627,311.2293,-6.871399
572.90155,312.40085,-7.2837524
572.1266,313.49265,-8.507324
571.6168,314.60605,-9.312012
571.1126,315.70752,-10.108154
570.8625,316.8421,-10.503052
570.6137,317.97064,-10.895813
570.1201,319.04263,-11.67511
569.87524,320.15643,-12.0616455
569.6317,321.26434,-12.446167
569.14844,322.30786,-13.2091675
568.9086,323.40146,-13.5877075
568.9086,324.55338,-13.5877075
568.1969,325.5053,-14.711426
567.96204,326.57935,-15.082153
567.96204,327.71933,-15.082153
567.72845,328.78488,-15.450928
567.2649,329.76834,-16.182861
567.03485,330.82047,-16.54602
567.03485,331.9488,-16.54602
566.806,332.99265,-16.907288
566.806,334.1181,-16.907288
566.57837,335.15378,-17.266724
566.35187,336.18417,-17.624329
566.35187,337.3039,-17.624329
566.12646,338.32626,-17.980164
565.9022,339.34344,-18.334167
565.67914,340.3555,-18.686401
565.45715,341.3625,-19.036865
565.2363,342.36438,-19.38556
565.2363,343.47006,-19.38556
565.2363,344.57574,-19.38556
565.01654,345.5671,-19.732483
565.01654,346.67004,-19.732483
565.01654,347.77295,-19.732483
564.79785,348.75385,-20.077698
564.5803,349.7299,-20.421204
564.36383,350.70105,-20.763
564.36383,351.79575,-20.763
564.36383,352.89044,-20.763
564.1484,353.85138,-21.10315
564.1484,354.94336,-21.10315
564.1484,356.03534,-21.10315
564.1484,357.12732,-21.10315
564.1484,358.2193,-21.10315
563.72076,359.01886,-21.77826
563.5085,359.9576,-22.113403
563.2973,360.89178,-22.446838
563.2973,361.97305,-22.446838
563.2973,363.05432,-22.446838
581.3082,264.7465,8.433228
580.6891,266.2698,7.441223
580.3823,267.67935,6.949646
580.07733,269.08054,6.4609375
579.7742,270.47345,5.9751587
579.7742,271.77505,5.9751587
579.7742,273.07666,5.9751587
580.07733,274.30237,6.4609375
580.07733,275.60782,6.4609375
580.07733,276.91327,6.4609375
580.07733,278.21875,6.4609375
580.3823,279.46338,6.949646
580.6891,280.71542,7.441223
580.6891,282.02866,7.441223
578.57916,302.9783,4.060425
578.2847,304.2523,3.588684
576.8381,305.45557,1.2706299
575.9898,306.6625,-0.08856201
